# .PCD v0.7 - Point Cloud Data file format
VERSION 0.7
FIELDS x y z
SIZE 4 4 4
TYPE F F F
COUNT 1 1 1
WIDTH 63
HEIGHT 1
VIEWPOINT 0 0 0 1 0 0 0
POINTS 63
DATA ascii
-21.88536072 -3.045758009 -5.86787796
-20.48949051 -4.669894218 -7.014491081
-20.47504997 -4.600568771 -7.00462389
-20.39339066 -4.712121964 -7.104208946
-20.41883087 -4.652057171 -7.108086109
-20.38600922 -4.513178825 -7.086761951
-20.37167931 -4.379056931 -7.072223186
-20.33886909 -4.241611004 -7.051545143
-20.33787918 -4.176335812 -7.046699047
-20.32369995 -4.108481884 -7.037329197
-20.32785988 -4.044447899 -7.034420967
-20.33552933 -3.981154919 -7.032804966
-20.33462906 -3.916241884 -7.028282166
10.50156975 27.72545052 -7.704433918
10.58174038 27.68045044 -7.700894833
14.98174953 30.47283936 -6.949382782
31.16020012 -29.65629959 -5.632662773
30.97293091 -28.0753994 -5.717774868
30.95989037 -27.89451981 -5.959259033
24.35481071 8.550222397 -7.020892143
24.41377068 8.915024757 -7.230779171
24.47089005 8.85089016 -7.2396698
24.45713043 8.761159897 -7.227546215
24.47662926 8.683509827 -7.225389957
24.48498917 8.601992607 -7.220002174
24.50398064 8.524301529 -7.217845917
24.52638054 8.4478302 -7.216769218
24.45738983 8.340223312 -7.188748837
24.49785995 8.43875885 -7.535982132
24.29515076 8.440889359 -7.631381035
24.27392006 8.266940117 -7.608511925
24.3091507 8.19579792 -7.611657143
24.32691002 8.118751526 -7.609370232
24.32531929 8.035363197 -7.601079941
22.79899979 38.83370972 -7.553442955
39.70574188 -12.03676987 -5.431385994
39.62028122 -12.14371014 -5.424720764
39.58946991 -12.2672596 -5.425634861
39.71456909 -11.91678047 -5.670988083
39.60375977 -12.14890957 -5.665668011
39.52278137 -12.25685024 -5.659392834
39.86265945 -11.96391964 -5.951566219
39.83428955 -12.08874989 -5.952847958
39.6096611 -12.15342045 -5.924642086
39.52870178 -12.26138973 -5.918088913
39.50978088 -12.38852978 -5.920938015
39.82041931 -11.95394993 -6.204702854
39.73057175 -12.0599699 -6.196386814
39.69715881 -12.18297005 -6.196980953
39.66809845 -12.30733967 -6.198318005
39.67584991 -12.15316963 -6.459364891
39.59204102 -12.39373016 -6.457973003
40.72774124 -8.762590408 -3.643811941
40.62631989 -8.859064102 -3.90020895
40.56676102 -8.863554955 -4.13613987
39.81018066 -9.327717781 -5.591734886
39.77656174 -9.448664665 -5.591053009
39.86552048 -9.214383125 -5.850421906
39.82743073 -9.334386826 -5.84899807
39.79764175 -9.456302643 -5.848855019
39.98136139 -9.243789673 -6.123621941
39.93547821 -9.362344742 -6.120948792
39.92773819 -9.489850998 -6.12421608
