# .PCD v0.7 - Point Cloud Data file format
VERSION 0.7
FIELDS x y z
SIZE 4 4 4
TYPE F F F
COUNT 1 1 1
WIDTH 134
HEIGHT 1
VIEWPOINT 0 0 0 1 0 0 0
POINTS 134
DATA ascii
10.62596989 27.79612923 -7.733246803
13.05373001 37.92975998 -7.707131863
13.17971039 37.9173584 -7.712821007
13.30475044 37.9017601 -7.717939854
13.42753029 37.87926865 -7.72173214
13.2863102 37.84160995 -7.960143089
13.40299988 37.80250931 -7.960534096
14.94069004 30.38933945 -6.930233002
34.06409073 -35.56785965 -7.049617767
27.75855064 -41.2793808 -7.120988846
27.50255966 -41.44562912 -7.120419025
31.60897064 -26.93605042 -5.938601971
30.95253944 -27.88788986 -5.957833767
30.99448013 -27.24748993 -6.158520222
30.96556091 -27.39093971 -6.16950798
27.10161018 -25.96805954 -6.28942585
27.33375931 -27.8323307 -6.790429115
25.77721977 -16.8782196 -5.727052212
25.7195797 -16.95343971 -5.725763798
25.66990089 -17.03389931 -5.726315022
25.79490089 -16.78589058 -5.903944969
25.72521019 -16.85310936 -5.899774075
25.68732071 -16.94113922 -5.902997017
25.61231995 -17.00466919 -5.897687912
25.57716942 -17.09461975 -5.901669979
25.86273003 -16.71982956 -6.103274822
25.77268028 -16.77396011 -6.094081879
25.76129913 -16.87928009 -6.103666782
25.66272926 -16.92745972 -6.092516899
25.55102921 -16.96651077 -6.07823801
25.49641037 -17.04319 -6.077651978
25.43911934 -17.11804008 -6.076478004
25.5082798 -17.2784996 -6.105817795
26.06295967 -16.72211075 -6.333927155
25.75519943 -16.97438049 -6.309131145
25.55528069 -16.95529938 -6.272643089
25.4713707 -17.01240921 -6.264780998
25.45319939 -17.11343002 -6.273248196
25.54900932 -17.29191017 -6.310139179
26.28906059 -16.86973 -6.577151775
26.15007973 -16.89402962 -6.555184841
26.05302048 -16.94485092 -6.543787956
25.89697075 -16.95663071 -6.517469883
25.85218048 -17.04084969 -6.519334793
25.77450943 -17.10331917 -6.512910843
25.69669914 -17.16546059 -6.506486893
25.58871078 -17.20709991 -6.492394924
25.97053909 -17.01382065 -6.718449116
25.84480095 -17.04500008 -6.699306011
25.70236015 -17.17828941 -6.68952322
25.6171093 -17.23524094 -6.681015015
25.43578911 -17.34090996 -6.661234856
25.74200058 -16.96685982 -6.874341011
25.68007088 -17.03927994 -6.871715069
25.73722076 -17.19115067 -6.901256084
25.56045914 -17.18672943 -6.867774963
25.46397972 -17.23554039 -6.855958939
25.2989502 -17.47081947 -7.046968937
27.79347038 8.342759132 -6.467982769
26.9817009 9.561502457 -6.558440208
26.96492958 9.462547302 -6.547210217
26.98554993 9.376896858 -6.54518795
26.98353958 9.191034317 -6.530813217
26.97261047 8.911119461 -6.507903099
27.34613991 8.479501724 -6.55956316
27.40555954 8.40585041 -6.567648888
27.45266914 8.328237534 -6.572814941
27.55368996 8.266653061 -6.59100914
26.92296028 9.724887848 -6.726867199
26.87388039 9.521161079 -6.69972086
26.87450027 9.42868042 -6.692588806
26.88124084 9.338521957 -6.687067986
26.85178947 9.236066818 -6.672574997
26.88736916 9.156152725 -6.674416065
26.87475014 9.059942245 -6.664292812
26.90242004 8.977448463 -6.664292812
26.89380074 8.882967949 -6.655321121
26.93110085 8.803743362 -6.657852173
26.94317055 8.716285706 -6.65417099
26.98739052 8.639221191 -6.658542156
26.83268929 9.783296585 -6.890625
26.85527039 9.698287964 -6.888738155
26.80071068 9.585741043 -6.867043018
26.78053093 9.48595047 -6.854308128
26.77648926 9.39216423 -6.845818996
26.78039932 9.301362038 -6.839450836
26.7757206 9.207779884 -6.830962181
26.77717018 9.116506577 -6.824122906
26.77462006 9.024069786 -6.816340923
26.78742981 8.936962128 -6.812568188
26.79718971 8.848947525 -6.808086872
26.81405067 8.763372421 -6.805492878
26.82416916 8.675683975 -6.801249027
26.85898972 8.596014023 -6.803370953
26.90468979 8.519732475 -6.808322906
26.94553947 8.44179821 -6.812096119
26.74081039 9.469747543 -7.011823177
26.73218918 9.374494553 -7.001932144
26.74249077 9.28606987 -6.997107983
26.74515915 9.195145607 -6.990353107
26.73741913 9.100852013 -6.980944157
26.73210907 9.007622719 -6.972259045
26.74028015 8.919118881 -6.967193127
26.7546196 8.832778931 -6.963816166
26.77329063 8.747941971 -6.961644173
26.78523064 8.660984039 -6.95778513
26.81999016 8.581428528 -6.959956169
26.87579918 8.508480072 -6.967676163
26.91937065 8.431498528 -6.972259045
26.94696999 8.349446297 -6.972742081
26.71158981 9.471043587 -7.189086914
26.67767906 9.275149345 -7.16437006
26.66202927 9.178123474 -7.152505875
26.65704918 9.085029602 -7.143608093
26.68754959 9.004133224 -7.144350052
26.70218086 8.917918205 -7.140889168
26.71744919 8.832001686 -7.137675762
26.70022011 8.735531807 -7.125812054
26.93577003 8.448102951 -7.160663128
40.62257004 -8.73996067 -3.634305954
40.57865906 -8.848671913 -3.895589113
40.57746124 -8.865891457 -4.137239933
40.70479965 -8.60959053 -4.41580677
40.67041016 -8.732760429 -4.414955139
40.69763184 -8.756112099 -4.668252945
40.75391006 -8.758648872 -5.198249817
39.84634018 -9.207322121 -5.59282589
39.76210022 -9.44522953 -5.589006901
39.83610153 -9.336420059 -5.850279808
40.25540161 -9.177128792 -6.16148901
39.98810959 -9.24534893 -6.124660969
39.94992065 -9.365730286 -6.123177052
39.89503098 -9.482077599 -6.119166851
39.97800064 -9.47914505 -6.395316124
