# .PCD v0.7 - Point Cloud Data file format
VERSION 0.7
FIELDS x y z
SIZE 4 4 4
TYPE F F F
COUNT 1 1 1
WIDTH 185
HEIGHT 1
VIEWPOINT 0 0 0 1 0 0 0
POINTS 185
DATA ascii
-22.0425396 -6.469080925 -7.378551006
-21.47554016 -6.957681179 -7.398211002
-21.49859047 -6.892342091 -7.398836136
-21.76637077 -6.466136932 -7.441717148
-21.24309921 -6.948532104 -7.462972164
-21.29499054 -6.893251896 -7.473793983
-21.3752594 -6.630568981 -7.472838879
-21.48895073 -6.449633121 -7.49161911
-20.83090973 -7.382530212 -7.503550053
-20.86417961 -7.322348118 -7.507427216
-20.90800095 -7.265758991 -7.515182018
-20.91945076 -7.197885036 -7.511303902
-20.9262104 -7.128482819 -7.505812168
-20.97846985 -7.074531078 -7.516797066
-20.98212051 -7.004143238 -7.510334969
-21.29970932 -6.462313175 -7.557507038
-21.34844017 -6.405640125 -7.567844868
-21.35710907 -6.336883068 -7.563968182
-20.71125031 -7.561732769 -7.623491764
-20.74323082 -7.501368999 -7.626776218
-20.75280952 -7.432916164 -7.621850014
-20.77017021 -7.367318153 -7.619880199
-20.79268074 -7.303561211 -7.619880199
-20.80784988 -7.237253189 -7.617252827
-20.81745911 -7.169075012 -7.612656116
-20.82683945 -7.100905895 -7.608057976
-20.84226036 -7.034862041 -7.605760098
-20.85926056 -6.969388008 -7.60411787
-20.88055038 -6.905361176 -7.60411787
-20.90702057 -6.843029976 -7.606088161
-20.95218086 -6.786715984 -7.614953995
-20.98008919 -6.724710941 -7.617580891
-21.15493965 -6.495584965 -7.651731968
-21.21725082 -6.443554878 -7.667164803
-21.30838013 -6.399899006 -7.693107128
-20.7524395 -7.21536684 -7.738580227
-20.78577042 -6.942245007 -7.718552113
-20.81055069 -6.879625797 -7.71988678
-20.84321022 -6.819558144 -7.724225998
-20.93133926 -6.706490993 -7.741584778
-20.97878075 -6.65078783 -7.751598835
-20.72661972 -7.490878105 -7.896906853
-20.70610046 -7.411717892 -7.880300999
-20.75799942 -7.358530998 -7.891483784
-20.72011948 -7.27362299 -7.868439198
-20.74233055 -7.210020065 -7.868439198
-20.71097946 -7.127980232 -7.848104954
-20.73007965 -7.063496113 -7.84708786
-20.70084 -6.98272419 -7.827771187
-20.74357986 -6.926332951 -7.835905075
-20.7700901 -6.864430904 -7.837937832
-20.79999924 -6.803602219 -7.84132719
-20.82525063 -6.741205215 -7.843020916
-20.86375046 -6.683022022 -7.84980011
-20.91464996 -6.628644943 -7.861321926
-20.9636097 -6.573455811 -7.87216711
-21.06830978 -6.464570999 -7.896567822
-21.13216019 -6.413290977 -7.913174152
-21.2859993 -6.38872385 -7.963671207
-20.64373016 -7.463150978 -7.999777794
-20.67182922 -7.401680946 -8.001841545
-20.67143059 -7.330066204 -7.992897987
-20.66459084 -7.256346226 -7.981546879
-20.63619995 -7.17533493 -7.961939812
-20.64746094 -7.108323097 -7.957811832
-20.67629051 -7.047367096 -7.960564137
-20.68623924 -6.979997158 -7.956091881
-20.73760033 -6.855885029 -7.959531784
-20.75495911 -6.791061878 -7.958156109
-20.77837944 -6.728222847 -7.959187984
14.75475979 30.94068909 -7.421812057
14.54730988 30.03000069 -7.223586082
14.69017029 30.58568001 -7.569546223
31.14067078 -29.82032967 -5.64573288
30.94150925 -27.87795067 -5.95569706
24.43298912 -27.46087074 -6.614323139
24.84050941 -27.06508064 -6.835909843
24.81698036 -27.20652962 -6.852466106
24.6620903 -27.20388985 -6.832599163
24.5482502 -27.24583054 -6.824137211
24.4573307 -27.31295967 -6.822113991
24.43811035 -27.46055984 -6.840324879
27.98811913 8.49598217 -5.980537891
26.14312935 9.443213463 -6.530863762
26.16555977 9.360668182 -6.52925396
26.19049072 9.279049873 -6.528334141
26.19035912 9.188667297 -6.521203041
26.20004082 9.101886749 -6.516602039
26.22232056 9.019563675 -6.515221119
26.21376038 8.747650146 -6.492675781
26.25341034 8.671459198 -6.495896816
26.26878929 8.587244987 -6.493135929
26.33667946 8.52009201 -6.503489017
26.32283974 8.426494598 -6.493597031
26.33929062 8.342759132 -6.491295815
26.37125969 8.263949394 -6.492906094
26.47643089 8.207785606 -6.512691021
25.97081947 9.469041824 -6.668010235
25.98694992 9.384697914 -6.664709091
25.99548912 9.297726631 -6.659521103
26.00281906 9.210467339 -6.65409708
26.00894928 9.122927666 -6.648437023
26.03314972 9.041815758 -6.647492886
26.01206017 8.94515419 -6.634994984
26.01269913 8.856225014 -6.628156185
25.98542023 8.75806427 -6.614243031
26.03797913 8.686912537 -6.620845795
26.05343056 8.603333473 -6.618015766
26.07415962 8.521549225 -6.61660099
26.10387993 8.442710876 -6.617544174
26.14262009 8.366732597 -6.620845795
26.18947029 8.293236732 -6.626269817
26.25280952 8.224761963 -6.635938168
26.24078941 8.132673264 -6.626504898
26.28792 8.058965683 -6.632164955
26.33576965 7.985326767 -6.638061047
26.42622948 7.924312115 -6.65480423
25.86020088 9.426606178 -6.802182198
25.81781006 9.321515083 -6.783364773
25.81064034 9.229517937 -6.773955822
25.81780052 9.142836571 -6.768406868
25.82099915 9.054914474 -6.761894226
25.8284893 8.968648911 -6.756587029
25.82192993 8.877690315 -6.747661114
25.85087967 8.799053192 -6.748143196
25.85201073 8.711025238 -6.741387844
25.87309074 8.629828453 -6.73994112
25.88838005 8.546758652 -6.737045765
25.90802002 8.465184212 -6.735356808
25.93940926 8.387451172 -6.736804008
25.96409988 8.307535172 -6.736563206
25.99778938 8.230475426 -6.738733768
26.07756042 8.167793274 -6.752967834
26.11362076 8.091197014 -6.75586319
26.22127914 7.948554039 -6.771060944
25.73048973 9.480246544 -6.954524994
25.74124908 9.394618988 -6.949581146
25.74444008 9.306379318 -6.942659855
25.75097084 9.219514847 -6.936728001
25.7086792 8.76185894 -6.888035774
25.83359909 8.364388466 -6.886305809
25.87021065 8.288640022 -6.889272213
25.87520027 8.202791214 -6.883833885
25.91319084 8.127428055 -6.887294769
25.96669006 8.056789398 -6.894957066
26.00239944 7.980497837 -6.897922993
26.09445 7.921228886 -6.915966034
25.73719025 9.385951996 -7.116044044
25.75948906 9.304645538 -7.114274979
25.76240921 9.216448784 -7.107198238
25.73129082 9.116366386 -7.090768814
25.64226913 8.996382713 -7.058417797
25.65329933 8.911956787 -7.053868771
25.6585598 8.825658798 -7.047801971
25.6552906 8.736605644 -7.03946209
25.67831039 8.656619072 -7.038451195
25.69465065 8.574430466 -7.035671234
25.98983955 7.969633102 -7.060945988
25.77441978 9.407617569 -7.296092033
25.89673042 9.362330437 -7.322698116
25.78491974 9.054448128 -7.26690197
25.70491028 8.937857628 -7.236422062
25.7678299 8.871219635 -7.246496201
25.71537971 8.765006065 -7.224021912
25.71743011 8.677732468 -7.217048168
25.73752022 8.596648216 -7.215240002
25.77753067 8.522194862 -7.219113827
15.55508995 34.25432968 -7.70353508
40.74332047 -8.765942574 -3.645220995
40.69926834 -8.87497139 -3.907279968
40.64258957 -8.88011837 -4.143940926
39.92837906 -9.226281166 -5.604421139
39.88637924 -9.345572472 -5.602510929
39.85078049 -9.466295242 -5.601555824
40.44271851 -9.217176437 -5.931478977
39.94556046 -9.232883453 -5.862246037
39.91030121 -9.35381031 -5.861248016
39.83037949 -9.464082718 -5.853699207
40.11582184 -9.662021637 -5.900281906
39.98424911 -9.244458199 -6.124067783
39.93162918 -9.361441612 -6.120355129
39.9152298 -9.486878395 -6.122285843
39.98247147 -9.221453667 -6.386806011
39.96649933 -9.346999168 -6.388817787
39.92224884 -9.465923309 -6.386342049
