# .PCD v0.7 - Point Cloud Data file format
VERSION 0.7
FIELDS x y z
SIZE 4 4 4
TYPE F F F
COUNT 1 1 1
WIDTH 117
HEIGHT 1
VIEWPOINT 0 0 0 1 0 0 0
POINTS 117
DATA ascii
14.93290997 30.3735199 -6.926603794
14.55667973 30.04933929 -7.228264809
14.65394974 30.0150795 -7.230816841
31.21323967 -30.07394981 -5.675794125
31.34177971 -29.64640999 -5.649130821
31.27510071 -29.76565933 -5.653574944
31.19008064 -29.86764908 -5.654750824
30.98930931 -27.92102051 -5.964957237
27.16070938 -26.02469063 -6.30322504
27.46834946 -27.96936989 -6.824056149
20.04770088 -17.84128952 -5.801970005
19.98195076 -17.89294052 -5.798779964
19.92478943 -17.95219994 -5.798141956
19.9000206 -18.04080009 -5.807075024
19.83736038 -18.09518051 -5.804947853
19.93224907 -17.83851051 -5.958996773
19.86944962 -17.89240074 -5.956590176
19.81879997 -17.9571991 -5.957902908
19.77659988 -18.02975082 -5.96184206
19.7168808 -18.08638954 -5.960528851
19.96054077 -17.75852966 -6.1184268
19.89289093 -17.80797958 -6.114385128
19.82440948 -17.85654068 -6.110116959
19.75436974 -17.90353012 -6.105400085
19.70150948 -17.96602058 -6.106073856
19.63121986 -18.01255035 -6.101356983
19.56513023 -18.06277084 -6.097988129
19.55673981 -18.16649055 -6.112812042
20.10313988 -17.66819954 -6.286781788
20.05322075 -17.73365974 -6.288162231
19.9703598 -17.76987076 -6.279190063
19.75550079 -17.90716934 -6.263085842
19.66739082 -17.93751907 -6.252503872
19.60724068 -17.99316978 -6.25089407
19.55695915 -18.05785942 -6.252503872
19.50288963 -18.11910057 -6.25296402
19.54673958 -18.27189064 -6.285171986
20.30080986 -17.95523071 -6.53665781
20.14327049 -17.9263401 -6.503407001
20.06067085 -17.96342087 -6.494445801
19.97007942 -17.99300957 -6.482891083
19.83054924 -17.97781944 -6.455299854
19.71068001 -17.97963905 -6.434075832
19.66402054 -18.04791069 -6.436905861
19.60141945 -18.10156059 -6.434546947
19.58209991 -18.1953392 -6.446574211
20.18755913 -17.96837044 -6.678182125
20.09185982 -17.99397087 -6.664671898
19.99258041 -18.01589966 -6.64995718
19.89479065 -18.03869057 -6.635723114
19.85656929 -18.11533928 -6.641512871
19.78373909 -18.16041946 -6.635723114
20.06152916 -17.95265007 -6.826984882
19.98834991 -17.99790955 -6.82080698
19.86322021 -18.10716057 -6.815863132
19.80186081 -18.16276932 -6.813886166
19.7303791 -18.20898056 -6.808447838
19.58851051 -18.18964005 -6.778541088
19.96575928 -17.98649025 -6.979560852
19.89615059 -18.03466988 -6.974506855
19.83643913 -18.09170914 -6.972990036
19.72007942 -18.20849037 -6.97122097
19.62585068 -18.23333931 -6.957572937
40.61658859 -8.85694313 -3.899266005
40.59300995 -8.869288445 -4.138841152
40.63930893 -8.726079941 -4.411549091
39.87384033 -9.342634201 -5.600738049
39.86307907 -9.342743874 -5.854269028
39.81978989 -9.461565971 -5.85213089
39.96979904 -9.241116524 -6.12184
39.93355942 -9.361893654 -6.120652199
39.87770844 -9.47796154 -6.116494179
39.88304901 -9.608597755 -6.12184
42.73352814 6.891403198 -6.739700794
42.74179077 6.758261204 -6.737689018
36.70727921 -2.807702065 -5.726347923
40.01231003 -9.228337288 -6.391602993
40.01940918 -9.359375 -6.397326946
39.94723892 -9.471850395 -6.390365124
36.79693985 -2.376038074 -5.946681023
36.92601013 -3.067822933 -5.975841999
36.99892044 -4.105163097 -6.003880978
40.03556061 -9.510191917 -6.640779018
36.43770981 9.958749771 -6.329824924
36.4847908 9.731427193 -6.327497005
36.92501068 -4.214093208 -6.227080822
36.88154984 -4.323799133 -6.221927166
36.83581161 -4.433042049 -6.216441154
36.73492813 -4.535278797 -6.201643944
36.30052185 9.932364464 -6.549695969
36.34223938 9.824032784 -6.551764965
36.36935043 9.711728096 -6.551248074
36.41421127 9.604122162 -6.554007053
36.47912979 9.38222599 -6.555213928
36.36447144 -2.564250946 -6.343107224
36.47333908 -2.684402943 -6.363627911
36.35786819 -2.78808403 -6.34483099
36.39725876 -2.903450966 -6.353281021
36.64852142 -4.171987057 -6.418465137
36.73337936 -4.295842171 -6.435709953
36.49736023 10.09801006 -6.108188152
36.36933899 10.66327 -6.351105213
36.38388824 10.54642963 -6.347947121
36.38005066 10.42442989 -6.341629028
36.40427017 10.31062031 -6.340299129
36.38066101 10.18346977 -6.330657005
36.38512039 10.06445026 -6.326001167
36.30738068 10.77742958 -6.591426849
36.26214981 10.52233028 -6.571250916
36.26585007 10.40287971 -6.566078186
36.29664993 10.29129982 -6.565906048
36.28347015 10.1674099 -6.55780077
36.28221893 10.04710007 -6.551938057
36.16828918 10.24880028 -6.765542984
36.1512413 10.12425995 -6.756459236
36.17169952 10.01041031 -6.754499912
36.01227951 10.08961964 -6.959893227
