# .PCD v0.7 - Point Cloud Data file format
VERSION 0.7
FIELDS x y z
SIZE 4 4 4
TYPE F F F
COUNT 1 1 1
WIDTH 290
HEIGHT 1
VIEWPOINT 0 0 0 1 0 0 0
POINTS 290
DATA ascii
8.846003532 -16.42300987 -5.983767033
8.761921883 -16.38714027 -5.960714817
8.699559212 -16.39125061 -5.952415943
8.639028549 -16.39850044 -5.945346832
8.604994774 -16.45611954 -5.956718922
8.539999962 -16.45457077 -5.946576118
8.957445145 -16.25959969 -6.07641983
8.884280205 -16.24451065 -6.06045723
8.819448471 -16.24415016 -6.050127983
8.743888855 -16.22347069 -6.032287121
8.672122955 -16.20918083 -6.01695013
8.604091644 -16.20132065 -6.004117012
8.540175438 -16.20075989 -5.994101048
8.517287254 -16.27821922 -6.013194084
9.959982872 -17.32781982 -6.669137955
8.832238197 -16.15932083 -6.141718864
8.713902473 -16.05969048 -6.093338013
8.656949043 -16.07216072 -6.087926865
8.577205658 -16.04179001 -6.066283226
8.509284019 -16.0328598 -6.052914143
8.413663864 -15.97082996 -6.019493103
8.348373413 -15.96547985 -6.007716179
8.287126541 -15.96745968 -5.998804092
8.225076675 -15.96753025 -5.989253998
8.165263176 -15.97157955 -5.981297016
8.114937782 -15.99402046 -5.980341911
8.763553619 -16.03693008 -6.197614193
8.674147606 -15.98970985 -6.168859005
8.596781731 -15.96374989 -6.14850378
8.495564461 -15.89239979 -6.110702038
8.432126999 -15.89081001 -6.100039959
8.340554237 -15.8353796 -6.068699837
8.241947174 -15.76529026 -6.031867981
8.173489571 -15.75185966 -6.017004967
8.120359421 -15.7676096 -6.013451099
8.069792747 -15.78822994 -6.011836052
8.81409359 -16.00251961 -6.309675217
8.732325554 -15.96982002 -6.2860322
8.651291847 -15.93760014 -6.262718201
8.560232162 -15.88591003 -6.231851101
8.463779449 -15.82297993 -6.196714878
8.394373894 -15.80965996 -6.181282043
8.298703194 -15.74594021 -6.146145821
8.184236526 -15.64494991 -6.096560955
8.111822128 -15.6230402 -6.078173161
8.026205063 -15.57481003 -6.049603939
6.959791183 -15.81894016 -5.966526031
6.907825947 -15.83242989 -5.963571072
6.86634779 -15.87001991 -5.969810009
6.817998886 -15.89188004 -5.970138073
6.766993046 -15.90750027 -5.968167782
6.724765778 -15.94384956 -5.974079132
6.689669132 -15.99752045 -5.986557007
6.632959843 -15.99965 -5.979660988
9.843162537 -16.88069916 -6.878026009
9.750239372 -16.83984947 -6.848985195
9.57056427 -16.76590919 -6.794575214
8.846243858 -16.06435013 -6.452423096
8.724578857 -15.95907021 -6.399013996
8.618479729 -15.88053989 -6.356619835
8.529484749 -15.83222008 -6.326577187
8.455981255 -15.81175995 -6.307884216
8.387544632 -15.80016041 -6.292862892
8.280593872 -15.71490002 -6.248466015
8.170751572 -15.62244987 -6.201399803
8.048526764 -15.50436974 -6.144319057
7.942646027 -15.41586018 -6.099255085
7.871712208 -15.39400005 -6.080894947
7.807384968 -15.38444996 -6.06754303
7.750823021 -15.38980961 -6.060198784
7.673654079 -15.35365009 -6.036499023
7.622325897 -15.36867046 -6.033161163
7.562654018 -15.36660957 -6.023147106
7.443564892 -15.36182022 -6.003118992
7.397216797 -15.3862896 -6.003786087
7.332530022 -15.37232018 -5.989431858
7.284123898 -15.39218998 -5.988430977
7.244478226 -15.43068027 -5.994772911
7.179992199 -15.41609001 -5.980420113
7.14452219 -15.46370983 -5.99043417
7.07584095 -15.43927956 -5.972407818
7.043653011 -15.49438953 -5.985426903
6.99763298 -15.51935959 -5.986762047
6.955759048 -15.55366993 -5.991768837
6.907626152 -15.57406998 -5.991435051
6.866643906 -15.61071968 -5.997444153
6.819471836 -15.63344002 -5.998110771
6.792430878 -15.70273972 -6.016805172
6.739023209 -15.71138 -6.012131214
6.701855183 -15.75800037 -6.022144794
6.644690037 -15.75763988 -6.01413393
6.60940218 -15.80926991 -6.02615118
6.567726135 -15.84601021 -6.032494068
6.521586895 -15.87219048 -6.034830093
6.46468401 -15.87205029 -6.027153015
6.429718971 -15.92590046 -6.040171146
6.380828857 -15.94554996 -6.040171146
9.810947418 -16.8286705 -6.975092888
9.756914139 -16.85461998 -6.973399162
9.662026405 -16.80942917 -6.942220211
9.559114456 -16.74910927 -6.904940128
9.376887321 -16.54752922 -6.809370041
9.222743988 -16.39254951 -6.733456135
9.088909149 -16.27127075 -6.671775818
8.853685379 -16.08112907 -6.570783138
8.730308533 -15.97282982 -6.515202999
8.632358551 -15.90939999 -6.478261948
8.508111954 -15.79582024 -6.420988083
8.427228928 -15.76128006 -6.396247864
8.328556061 -15.69231987 -6.35761404
8.222053528 -15.60709 -6.312540054
8.136206627 -15.55970955 -6.283054829
8.022559166 -15.45767021 -6.23154211
7.922539234 -15.38016987 -6.190196037
7.836346149 -15.32816982 -6.159356117
7.747140884 -15.26908016 -6.125803947
7.674873829 -15.24236012 -6.105470181
7.583920002 -15.17745972 -6.069884777
7.524783134 -15.17537022 -6.059718132
6.991864204 -15.2596302 -6.004477978
6.953578949 -15.29986 -6.01193285
6.921686172 -15.35457039 -6.025149822
6.85995388 -15.34309006 -6.012271881
6.804460049 -15.34514046 -6.004816055
6.752048016 -15.35389042 -6.000072002
6.71205616 -15.39091969 -6.006511211
6.679742813 -15.44598007 -6.020067215
6.634549141 -15.47159004 -6.022099972
6.584105968 -15.48493958 -6.019389153
6.543877125 -15.52241039 -6.026166916
6.503842831 -15.56064034 -6.033284187
6.478041172 -15.63354015 -6.053956985
6.438269138 -15.67335987 -6.061751842
6.395475864 -15.70611 -6.066834927
6.359936237 -15.75706005 -6.079036236
6.322397232 -15.80358028 -6.089541912
6.27977705 -15.83777046 -6.095303059
6.238728046 -15.87623024 -6.102758884
9.712480545 -16.77434921 -7.058971882
9.608086586 -16.71208 -7.020102024
9.348400116 -16.49379921 -6.903490067
9.189535141 -16.33009911 -6.822652817
9.065196991 -16.22542953 -6.766926765
8.961173058 -16.15545082 -6.725993156
8.858118057 -16.08580971 -6.685401917
8.733504295 -15.97531986 -6.627955914
8.64279747 -15.92529011 -6.595964909
8.515958786 -15.80706978 -6.535768032
8.393914223 -15.69567966 -6.478665829
8.30785656 -15.65003014 -6.449082851
8.233977318 -15.62644005 -6.428787231
8.122894287 -15.53098011 -6.378909111
8.021561623 -15.45248985 -6.336255074
7.832542896 -15.31750011 -6.260578156
7.73196888 -15.23595047 -6.217235088
7.64210701 -15.17405987 -6.18214798
7.550600052 -15.10756969 -6.145341873
7.380637169 -14.9969101 -6.081359863
7.14429903 -14.97787952 -6.037330151
6.994647026 -15.01830959 -6.027353764
6.959566116 -15.06357002 -6.036985874
6.923491001 -15.10704041 -6.045928955
6.886435986 -15.14873028 -6.054184914
6.845717907 -15.18262005 -6.059344769
6.804090023 -15.21469975 -6.063817024
6.767659187 -15.25868034 -6.073103905
6.732913017 -15.30687046 -6.084112167
6.692303181 -15.34208965 -6.089960098
6.652286053 -15.3789196 -6.096496105
6.61469698 -15.42168999 -6.105439186
6.57139492 -15.45141983 -6.109222889
6.48355484 -15.64309025 -6.161509037
6.443740845 -15.68288994 -6.169421196
6.395949841 -15.7034502 -6.169764996
6.364967823 -15.76566029 -6.186620235
6.280229092 -15.83497047 -6.198659897
6.228527069 -15.84630013 -6.195563793
6.205442905 -15.93095016 -6.221363068
9.649670601 -16.66238976 -7.126440048
9.575612068 -16.65210915 -7.109343052
9.501707077 -16.64152908 -7.092247009
9.087527275 -16.26198959 -6.89337492
8.713536263 -15.93546009 -6.719623089
8.597982407 -15.83940029 -6.667636871
8.498661041 -15.77165985 -6.627861977
8.385690689 -15.67700958 -6.576922894
8.316894531 -15.66376972 -6.56052494
8.165667534 -15.49355984 -6.478185177
8.106801033 -15.49695015 -6.469112873
8.003070831 -15.41362 -6.423756123
7.896063805 -15.32231045 -6.375258923
7.812314987 -15.2747097 -6.345253944
7.723416805 -15.21588039 -6.310712814
7.605857849 -15.09889984 -6.252098083
7.536448956 -15.0760603 -6.232909203
7.289596081 -14.92416954 -6.141497135
7.213116169 -14.88321018 -6.115328789
7.164577961 -14.8993597 -6.112886906
7.116412163 -14.91619968 -6.110794067
7.071016788 -14.93881035 -6.111143112
7.027543068 -14.96551991 -6.11323595
6.984763145 -14.99380016 -6.116026878
6.944626808 -15.02791977 -6.12126112
6.904347897 -15.06194019 -6.126493931
6.875953197 -15.12228966 -6.142543793
6.84879303 -15.18603039 -6.159987926
6.797194958 -15.19585037 -6.155453205
6.758524895 -15.23462009 -6.162779808
6.718925953 -15.27157974 -6.169408798
6.677663803 -15.30500984 -6.17464304
6.616148949 -15.42148018 -6.205346107
6.569172859 -15.4425602 -6.205694199
6.426206112 -15.63642979 -6.251749039
6.387752056 -15.67951012 -6.261168957
6.359272003 -15.7476902 -6.280707836
6.329737186 -15.8141098 -6.299548149
6.26943922 -15.80383968 -6.287685871
6.234300137 -15.85700989 -6.301292896
6.192427158 -15.89352989 -6.308270931
9.612010956 -16.59440041 -7.219614029
8.588923454 -15.81949043 -6.774120808
8.487999916 -15.74862003 -6.732334137
8.387591362 -15.67728043 -6.690546989
8.250421524 -15.53526974 -6.618659019
8.166092873 -15.49100971 -6.58891201
8.056536674 -15.39750004 -6.538271904
7.888219833 -15.30366039 -6.477362156
7.785017967 -15.21788025 -6.430616856
7.694693089 -15.15579987 -6.394142151
7.597670078 -15.07911015 -6.351645947
7.531299114 -15.06219959 -6.334648132
7.382976055 -14.9948597 -6.286840916
7.263875008 -14.86785984 -6.223805904
7.198647976 -14.84967995 -6.20680809
7.151433945 -14.86833 -6.20539093
7.111825943 -14.90285969 -6.210702896
7.08127594 -14.95672989 -6.224160194
6.910061836 -15.07054996 -6.235846996
6.830149174 -15.14080048 -6.247532845
6.785574913 -15.16594982 -6.249302864
6.753046989 -15.21833038 -6.262405872
6.715364933 -15.25951958 -6.270905018
6.687966824 -15.32462025 -6.289319992
6.645005226 -15.35451031 -6.293214798
6.610773087 -15.4048996 -6.30561018
6.568604946 -15.43715954 -6.310566902
6.460272789 -15.57903004 -6.344210148
6.420979023 -15.61954021 -6.352708817
6.389260769 -15.6789999 -6.368999004
6.352334023 -15.72628021 -6.380331039
6.311356068 -15.76393032 -6.387766838
6.268826008 -15.79798985 -6.393786907
6.239150047 -15.8650198 -6.413265228
6.183657169 -15.86666012 -6.406181812
8.25217247 -15.53530979 -6.731441021
7.664833069 -15.09379959 -6.476305962
7.597910881 -15.07641029 -6.458697796
14.94567013 30.84713936 -6.797472954
14.98822975 30.48601913 -6.952406883
14.89988041 31.51293945 -7.344313145
14.82036972 31.57551956 -7.552828789
31.4450798 -28.84316063 -5.586917877
31.12356949 -29.62144089 -5.62599802
31.10988045 -29.79084969 -5.640112877
30.96430969 -27.89849091 -5.960114002
24.32453918 -29.09267044 -6.116839886
24.2421093 -29.17551041 -6.11860323
24.15752029 -29.2558403 -6.119884968
27.33300972 -26.18977928 -6.343458176
24.23296928 -28.98693085 -6.331154823
24.40760994 -26.75773048 -6.738783836
24.14850044 -26.96805954 -6.735473156
24.06237984 -27.03834915 -6.73455286
24.46645927 -26.83514977 -6.973533154
24.36753082 -26.89189911 -6.968792915
18.22464943 25.22407913 -7.897717953
40.85726166 -8.790457726 -3.655519962
40.78179169 -8.761985779 -3.912653923
40.74790955 -8.885577202 -3.91199398
40.71257019 -8.89540863 -4.151143074
40.69374084 -8.737771034 -4.417510033
39.80450821 -9.455305099 -5.59500885
39.83127975 -9.335289955 -5.849566936
39.73986053 -9.442575455 -5.840308189
39.9524498 -9.237107277 -6.119166851
39.93836975 -9.363021851 -6.121395111
39.89503098 -9.482077599 -6.119166851
40.04600906 -9.23610878 -6.397017002
40.02037048 -9.359600067 -6.397480965
39.97127914 -9.477549553 -6.394231796
