# .PCD v0.7 - Point Cloud Data file format
VERSION 0.7
FIELDS x y z
SIZE 4 4 4
TYPE F F F
COUNT 1 1 1
WIDTH 181
HEIGHT 1
VIEWPOINT 0 0 0 1 0 0 0
POINTS 181
DATA ascii
-21.72252083 -6.950191975 -5.629493237
-21.82885933 -6.910467148 -5.651687145
-21.87310982 -6.850717068 -5.657718182
-21.94779015 -6.80024004 -5.671710014
-21.63446999 -6.499695778 -7.120359898
-21.64426041 -6.430305004 -7.117035866
-21.64650917 -6.358767033 -7.111293793
-21.68787003 -6.226614952 -7.112201214
-21.66687965 -5.999403954 -7.220262051
-22.64394951 -6.120656967 -7.534995079
-21.66268921 -5.997818947 -7.505623817
-16.3288002 -5.730555058 -5.866445065
-21.37434006 -5.986838818 -7.536506176
-15.89247036 -5.857415199 -5.846670151
-15.93432045 -5.817378044 -5.855535984
-15.97784996 -5.77778101 -5.865058899
-16.13332939 -5.77810812 -5.915956974
-16.21838951 -5.696538925 -5.934346199
-15.88582993 -5.798221111 -5.946704865
-15.92037964 -5.755544186 -5.953046799
-16.03203964 -5.7403512 -5.988430977
-15.84232998 -5.835875988 -6.039722919
-15.85132027 -5.784020901 -6.036334038
-17.52948952 -5.674421787 -6.595183849
-15.75909996 -5.972037792 -6.13192606
-15.75273991 -5.914420128 -6.122293949
-15.76025009 -5.862134933 -6.118166924
-15.78785038 -5.817327023 -6.121951103
-15.80473995 -5.768540859 -6.121606827
-15.97778034 -5.776215076 -6.18214798
-16.0139904 -5.733816147 -6.189372063
-16.1536293 -5.727966785 -6.236843109
-16.99947929 -5.794079781 -6.537487984
-15.69826031 -6.060925007 -6.222789764
-15.70890999 -6.009719849 -6.219649792
-15.71588039 -5.95717907 -6.21511507
-15.72881985 -5.906958103 -6.213020802
-15.74510956 -5.858020782 -6.212324142
-15.7709198 -5.812604904 -6.215464115
-15.78604031 -5.763228893 -6.214416981
-15.91996956 -5.756845951 -6.260470867
-16.01166916 -5.734526157 -6.289779186
-16.12458038 -5.71921587 -6.327459812
-16.73209953 -5.76192522 -6.546219826
-16.84461021 -5.742929935 -6.583551884
-15.69379997 -6.005647182 -6.320837021
-15.70866013 -5.95614481 -6.319420815
-15.72509956 -5.90726614 -6.318712234
-15.75279045 -5.862580776 -6.322607994
-15.79440022 -5.822957993 -6.33217001
-15.77705002 -5.761643887 -6.318004131
-15.79905033 -5.714804173 -6.319775105
-16.04805946 -5.749241829 -6.412909985
-16.30097008 -5.727220058 -6.500380039
-16.52338982 -5.748458862 -6.582538128
-17.73472977 -5.806119919 -7.024135113
-17.77292061 -5.758312225 -7.032279968
-17.81365967 -5.71118021 -7.041487217
-16.05385971 -5.752864838 -6.524457932
-16.15752983 -5.678384781 -6.552486897
14.99211979 30.49393082 -6.954222202
12.36832047 34.24847031 -7.67380619
12.47064972 34.20301056 -7.672149181
14.5359602 30.24268913 -7.264208794
14.57371998 30.08452034 -7.236773014
26.81321907 -37.59403992 -6.895524979
30.90914917 -27.84880066 -5.949429035
24.27050018 -29.20968056 -6.125813007
24.19774055 -29.30455017 -6.130138874
24.39162064 -28.99544907 -6.349442959
24.31266022 -29.0822506 -6.352103233
24.65707016 -26.86520958 -6.785140038
24.05780983 -27.03321075 -6.733264923
26.98856926 -1.404729962 -6.020925045
26.95685959 -1.486019969 -6.014798164
26.9697094 -1.569736004 -6.018735886
26.99690056 -1.654438019 -6.025958061
26.90600967 -1.731745005 -6.006700993
26.92490959 -1.815922976 -6.012172222
26.93770027 -1.89982295 -6.016328812
26.90839005 -1.980738997 -6.011077881
26.88565063 -2.06201601 -6.007358074
26.88212013 -2.144722939 -6.008014202
26.91527939 -2.230488062 -6.016985893
26.7218399 -2.383178949 -6.144032955
26.88414955 -1.239441037 -6.321979046
26.45796967 -2.034641027 -6.232950211
26.59516907 -2.45608902 -6.273668766
26.49423027 -1.141947985 -6.395164967
26.42071915 -1.301241994 -6.379129887
26.39331055 -1.381075978 -6.37346983
26.37924957 -1.461505055 -6.37111187
26.38628006 -1.543109059 -6.373940945
26.36687088 -1.623159051 -6.370403767
26.37050056 -1.70460701 -6.372527122
26.36804962 -1.785699964 -6.373233795
26.37602043 -1.867547989 -6.376535892
26.37985992 -1.949175954 -6.378893852
26.39895058 -2.032037973 -6.385025024
26.41971016 -2.115190029 -6.391627789
26.4479599 -2.199132919 -6.400117874
26.46820068 -2.282602072 -6.406721115
26.4901104 -2.366388083 -6.413794994
26.52531052 -2.451581955 -6.424170971
26.56216049 -2.53719902 -6.435019016
26.52541924 -0.9822065234 -6.558283806
26.46895027 -1.061444044 -6.545014858
26.47065926 -1.224238038 -6.547185898
26.36597061 -1.300475001 -6.522097111
26.3512001 -1.380800962 -6.519443989
26.31679916 -1.459972978 -6.511964798
26.31703949 -1.540989041 -6.513171196
26.31413078 -1.62184 -6.513652802
26.31677055 -1.703063965 -6.515583992
26.32304955 -1.784582019 -6.518477917
26.33390045 -1.866497993 -6.522580147
26.33869934 -1.94806695 -6.525232792
26.35001945 -2.030205011 -6.529574871
26.36590958 -2.112818003 -6.535123825
26.38154984 -2.195548058 -6.540672779
26.38726044 -2.277559042 -6.543808937
26.44780922 -2.364550114 -6.560696125
26.44235992 -2.445858002 -6.561179161
26.47821045 -2.531124115 -6.572033882
26.52440071 -2.61768198 -6.585544109
26.42985916 -0.9682664275 -6.706120014
26.39578056 -1.048115969 -6.698211193
26.35371017 -1.127434015 -6.688323975
26.34239006 -1.207924962 -6.686347008
26.31822968 -1.287740946 -6.681156158
26.28899956 -1.367169023 -6.674729824
26.26243019 -1.446588993 -6.669044971
26.2607708 -1.527323008 -6.669785976
26.26370049 -1.608356953 -6.671763897
26.26831055 -1.689548016 -6.674235821
26.27169991 -1.770717025 -6.676459789
26.27677917 -1.852059007 -6.679179192
26.30575943 -1.935227036 -6.688076973
26.31323051 -2.016959906 -6.691536903
26.33782959 -2.100145102 -6.699447155
26.35926056 -2.18325901 -6.706614017
26.37657928 -2.266191959 -6.712793827
26.38879967 -2.348823071 -6.717737198
26.40752029 -2.43217206 -6.724411011
26.45780945 -2.518690109 -6.739241123
26.56954002 -2.611608028 -6.769889832
26.40200996 -0.9737848043 -6.861277103
26.22820091 -1.53194201 -6.822859764
26.28614044 -1.616261959 -6.839288235
26.31292915 -1.698956966 -6.84762907
26.29504013 -1.778826952 -6.844343185
26.31744957 -1.861471057 -6.851673126
26.31933022 -1.942772985 -6.853693962
26.34507942 -2.025959015 -6.862034798
26.33584976 -2.106543064 -6.861277103
26.32057953 -2.18660903 -6.859002113
26.35037994 -2.270505905 -6.868607044
26.32979965 -2.350132942 -6.865067959
26.52190018 -2.449321032 -6.917387009
26.54892921 -2.533987999 -6.926485062
26.58724976 -2.619982004 -6.938617229
26.32666016 -1.530408025 -7.010913849
26.35462952 -1.613175988 -7.019697189
26.40398979 -1.77888 -7.035711765
26.39937019 -1.859946012 -7.035970211
15.44470024 34.29027939 -7.700913906
40.62631989 -8.859064102 -3.90020895
39.85366821 -9.466981888 -5.601965904
40.61034012 -9.778450966 -5.713274002
40.6648407 -9.923665047 -5.725277901
40.07574844 -9.262973785 -5.881476879
39.93053818 -9.358552933 -5.86424017
39.8506012 -9.468887329 -5.85668993
40.47956848 -9.74962616 -5.954130173
40.5513916 -9.898649216 -5.969231129
40.0304985 -9.255148888 -6.131196022
40.00094986 -9.377691269 -6.131046772
40.47335815 -9.750796318 -6.213018894
40.0719986 -9.24210453 -6.401195049
40.06076813 -9.36905098 -6.403978825
40.00492096 -9.485527992 -6.399647236
