# .PCD v0.7 - Point Cloud Data file format
VERSION 0.7
FIELDS x y z
SIZE 4 4 4
TYPE F F F
COUNT 1 1 1
WIDTH 590
HEIGHT 1
VIEWPOINT 0 0 0 1 0 0 0
POINTS 590
DATA ascii
-15.36470032 -11.99617004 -7.099218845
-15.45707035 -11.99213982 -7.12501812
-15.56741047 -12.00142002 -7.159072876
-15.84945011 -11.98791981 -7.238190174
-15.94019985 -11.97984982 -7.262957096
-16.08955956 -11.9383297 -7.297699928
-15.26910973 -11.99936008 -7.187846184
-15.31840992 -11.96226978 -7.193777084
-15.42463017 -11.96922016 -7.22657299
-15.82594967 -11.97241974 -7.345897198
-15.90754986 -11.95759964 -7.366830826
-16.11080933 -11.95639992 -7.427189827
-14.96844006 -11.98943996 -7.219967842
-15.06002998 -11.9871397 -7.246527195
-15.12681007 -11.96465969 -7.261045933
-15.2097702 -11.95460033 -7.283357143
-15.33481979 -11.97696018 -7.325851917
-15.4113903 -11.9608202 -7.344974995
-15.49170971 -11.94717026 -7.365869045
-15.58545017 -11.94338036 -7.393136024
-15.68153954 -11.94083023 -7.421465874
-15.81208038 -11.96376038 -7.466085911
-14.51786995 -11.92613983 -7.192481995
-14.50450993 -11.84082031 -7.167686939
-15.01303959 -11.95195961 -7.347000122
-15.10453033 -11.94927025 -7.373950958
-15.18733978 -11.93920994 -7.396590233
-15.58677006 -11.94664955 -7.519845009
-15.66491985 -11.93043995 -7.539968014
10.96658993 27.43524933 -8.042345047
14.98087978 30.47108078 -6.948979855
12.46228027 34.18003082 -7.666967869
14.57713032 30.09155083 -7.238473892
14.60484028 30.40800095 -7.525342941
14.62835026 30.2190094 -7.489456177
30.94555092 -39.1599617 -6.834132195
30.96405029 -29.48354912 -5.848863125
30.91503906 -27.85409927 -5.950569153
32.00228882 -26.10268974 -6.664813042
24.25221062 -29.18766022 -6.121167183
24.18077087 -29.2840004 -6.125813007
27.21268082 -26.07448959 -6.315361023
24.69735909 -26.74394989 -6.773550987
24.03101921 -27.00309944 -6.72572279
34.46057892 -0.007878255099 -3.857861042
34.44549179 -0.1135525033 -3.8561759
34.45988083 -0.2193242013 -3.857861042
34.46699905 -0.325119704 -3.858760118
34.48173904 -0.4310603142 -3.860557079
34.49615097 -0.5370944738 -3.86235404
34.51718903 -0.64335078 -3.864938021
34.52994919 -0.7495685816 -3.866622925
34.54238892 -0.8558709025 -3.868308067
34.55649185 -0.9623119235 -3.870218039
34.5752182 -1.069000959 -3.872689009
34.58369827 -1.175475955 -3.874037027
34.59780121 -1.282235026 -3.876059055
34.60363007 -1.388772011 -3.877182961
34.62105179 -1.495872021 -3.879653931
34.6182785 -1.602172017 -3.879878998
34.6271019 -1.709058046 -3.881452084
32.33618164 -0.09310779721 -4.224639893
32.35557175 -0.1924320012 -4.227253914
32.37266922 -0.2918581069 -4.229607105
32.38748932 -0.3913669884 -4.231698036
32.41091919 -0.4911049008 -4.234964848
32.42808914 -0.5908818245 -4.237449169
32.44099045 -0.6906840205 -4.23940897
32.45755005 -0.7906677723 -4.241891861
32.45993042 -0.8903784752 -4.242546082
32.47092056 -0.990383625 -4.244376183
32.48654938 -1.090631008 -4.246859074
32.49990082 -1.190911055 -4.249081135
32.55908966 -1.593379021 -4.259144783
32.57780075 -1.694497943 -4.262280941
32.59719849 -1.795801997 -4.265549183
32.59352112 -1.895915985 -4.265810013
32.58457947 -1.995720029 -4.265419006
32.31758881 -0.2000270933 -4.41167593
32.35348129 -0.2995148897 -4.416722775
32.36330032 -0.3989070058 -4.418223858
32.39263916 -0.4986673892 -4.422451973
32.40581131 -0.5983188152 -4.424499035
32.41669846 -0.6980128884 -4.426271915
32.42926025 -0.7978283167 -4.428318024
32.43854141 -0.8976451159 -4.429955006
32.44256973 -0.9973741174 -4.43091011
32.37306976 -0.4012154043 -4.621168137
28.76553917 -0.7959612012 -4.632349014
28.69193077 -0.8820242286 -4.620811939
28.63975906 -0.9683771729 -4.612802029
26.89110947 -1.98498702 -4.338173866
27.05784988 -3.002059937 -4.380313873
27.26357079 -0.9237927794 -4.560400009
27.13419914 -3.012511015 -4.564057827
25.96875954 -3.206206083 -4.372701168
25.34815025 -0.8519474864 -4.401205063
25.2824192 -0.9274024963 -4.390169144
25.23517036 -1.003204942 -4.382409096
25.11533928 -1.926316977 -4.370854855
25.12207985 -2.004379034 -4.373095989
25.1377697 -2.160933018 -4.378098011
25.14278984 -2.239092112 -4.380167007
25.1554203 -2.318025112 -4.383615017
25.16094017 -2.396404028 -4.385858059
25.17111015 -2.475320101 -4.388960838
25.18300056 -2.554518938 -4.392409801
25.19366074 -2.633712053 -4.395687103
25.20896912 -2.713521957 -4.39982605
25.2201004 -2.793016911 -4.403275013
25.22805023 -2.872271061 -4.406206131
25.24748993 -2.952974081 -4.411207199
25.26374054 -3.033469915 -4.415689945
25.27582932 -3.113611937 -4.419484138
25.26615906 -3.191143036 -4.419484138
25.30216026 -3.274583101 -4.42758894
25.28027916 -3.350641012 -4.425519943
25.19325066 -0.8499205709 -4.523784161
25.00172043 -0.9202504158 -4.489585876
25.00172997 -0.9970679879 -4.490119934
25.02116966 -1.074740052 -4.494216919
24.9656601 -1.149098039 -4.484776974
24.95808029 -1.225492954 -4.484065056
24.96993065 -1.302878976 -4.486914158
24.97171021 -1.379804969 -4.487983227
24.99093056 -1.457787037 -4.492258072
24.99910927 -1.535236001 -4.494573116
25.02766991 -1.614079952 -4.500628948
25.04517937 -1.692383051 -4.504725933
25.05656052 -1.770393014 -4.507753849
25.06572914 -1.848343015 -4.510426044
25.08152008 -1.92689395 -4.514344215
25.08922958 -2.004931927 -4.516838074
25.09374046 -2.08279109 -4.518796921
25.0999794 -2.160865068 -4.521111965
25.1147995 -2.239784956 -4.52503109
25.12347984 -2.318273067 -4.527881145
25.13681984 -2.397301912 -4.531620979
25.14208031 -2.4756639 -4.533936977
25.15003014 -2.554378986 -4.536787033
25.1616497 -2.633574963 -4.540349007
25.17987061 -2.713606119 -4.545157909
25.19195938 -2.793122053 -4.54889822
25.20282936 -2.872626066 -4.552461147
25.22126007 -2.95314002 -4.55744791
25.23553085 -3.03332305 -4.561723232
25.23781967 -3.112175941 -4.56385994
25.25646973 -3.193170071 -4.569025993
25.28558922 -3.275700092 -4.57614994
25.25882912 -3.351058006 -4.573122025
24.94412994 -0.9156355262 -4.632173061
24.95495033 -0.992705822 -4.634747982
24.95079994 -1.069219947 -4.634563923
24.9523201 -1.145987988 -4.635484219
24.94672012 -1.222439051 -4.6351161
24.9713192 -1.300451994 -4.640450954
25.0643692 -1.382416964 -4.658661842
25.08749008 -1.460906982 -4.663813114
25.08386993 -1.537927985 -4.663997173
25.08687973 -1.615383029 -4.665468216
25.10239983 -1.693729997 -4.669331074
25.12257957 -1.772534013 -4.674114227
25.13075066 -1.850612044 -4.676689148
25.14650917 -1.929358006 -4.680736065
25.12381935 -2.005167007 -4.677608967
25.17926025 -2.087353945 -4.689198017
25.17371941 -2.164676905 -4.689382076
25.18066978 -2.243119955 -4.691956997
25.16680908 -2.319730997 -4.690670013
25.19676018 -2.400474072 -4.697659969
25.19124031 -2.477957964 -4.698028088
25.1844902 -2.555330992 -4.698212147
25.18729019 -2.633708 -4.70023489
25.24945068 -2.718547106 -4.713479996
25.28788948 -2.801192999 -4.722309113
25.29089928 -2.880096912 -4.724516869
25.27901077 -2.957331896 -4.723965168
25.27275085 -3.035224915 -4.724516869
25.26332092 -3.112746 -4.724516869
25.2595005 -3.19097805 -4.725619793
25.27005959 -3.271107912 -4.729483128
25.22287941 -3.343710899 -4.722493172
25.32066917 -0.8579875231 -4.853319168
24.91563034 -0.9208050966 -4.775578976
24.93132973 -0.9979866743 -4.779181004
24.92913055 -1.074512959 -4.779370785
24.92963982 -1.151170015 -4.780128956
24.93090057 -1.227888942 -4.781076908
24.99172974 -1.307755947 -4.793591022
25.02779007 -1.386649013 -4.801365852
25.04203987 -1.464516044 -4.80496788
25.05604935 -1.542482972 -4.808570862
25.08353996 -1.621436 -4.814827919
25.10293007 -1.700042009 -4.819568157
25.11033058 -1.777950048 -4.822032928
25.12434006 -1.856426001 -4.825825214
25.13615036 -1.934852958 -4.829237938
25.16728973 -2.014938116 -4.836442947
25.15609932 -2.091733932 -4.835494995
25.17009926 -2.170672894 -4.839477062
25.17309952 -2.248756886 -4.841372967
25.18564034 -2.327784061 -4.845166206
25.19401932 -2.40653491 -4.848198891
25.20704079 -2.485841036 -4.852180958
25.2168808 -2.564950943 -4.855594158
25.23232079 -2.644759893 -4.860145092
25.25435066 -2.725424051 -4.866023064
25.24489975 -2.802783012 -4.865832806
25.24592972 -2.881333113 -4.867729187
25.27500916 -2.963231087 -4.875123978
25.25897026 -3.039937973 -4.873795986
25.2573204 -3.11838007 -4.875312805
25.25251007 -3.196470022 -4.876262188
25.24452972 -3.274180889 -4.876640797
25.22365952 -3.350193024 -4.874555111
25.24245071 -3.431529999 -4.880242825
25.31867027 -0.8598002791 -5.013566017
24.86216927 -0.9206910729 -4.923001766
24.84844971 -0.9965310097 -4.9208498
24.90896034 -1.075507045 -4.93356514
24.91044044 -1.152148008 -4.934543133
24.92736053 -1.229580045 -4.938650131
24.97242928 -1.308614016 -4.948431015
25.01334 -1.387719035 -4.957427979
25.02364922 -1.465312004 -4.960361958
25.03274918 -1.542919993 -4.96310091
25.05334091 -1.621358037 -4.968185902
25.06977081 -1.69967103 -4.972489834
25.08008957 -1.777685046 -4.975618839
25.08527946 -1.855417013 -4.977770805
25.09510994 -1.933573008 -4.980900764
25.10371971 -2.011729002 -4.98383522
25.10817909 -2.089631081 -4.985986233
25.11827087 -2.168085098 -4.989312172
25.13102913 -2.246881962 -4.993224144
25.14159966 -2.325598001 -4.99674511
25.15777016 -2.404958963 -5.001439095
25.1697998 -2.484055996 -5.005351067
25.17668915 -2.562752962 -5.008285046
25.19602013 -2.642844915 -5.013761997
25.20533943 -2.722028017 -5.017282963
25.28751945 -2.809410095 -5.035473824
25.21446991 -2.879637003 -5.022563934
25.22890091 -2.959721088 -5.027258873
25.22262001 -3.037460089 -5.027844906
25.21610069 -3.115187883 -5.028431892
25.22783089 -3.195245981 -5.032735825
25.19553947 -3.269726992 -5.028236866
25.1776104 -3.345977068 -5.026671886
25.13710976 -3.419109106 -5.020607948
25.20939064 -0.8460639119 -5.15199995
24.81907082 -0.909183979 -5.072169781
24.82497025 -0.9856737256 -5.073984146
24.84826088 -1.062963009 -5.079426765
24.87715912 -1.140673041 -5.086080074
24.89409065 -1.217996001 -5.090312958
24.9440403 -1.297163963 -5.101399899
24.99568939 -1.376757979 -5.112891197
25.00502968 -1.454234004 -5.115714073
24.98871994 -1.530223012 -5.113295078
24.99271011 -1.607445955 -5.115108967
24.9974308 -1.684774041 -5.117125034
25.04880905 -1.765454054 -5.128817081
25.05304909 -1.843013048 -5.130833149
25.02383995 -1.918069005 -5.125995159
25.06763077 -1.998805046 -5.136275768
25.0828495 -2.077481031 -5.140710831
25.09295082 -2.155850887 -5.144137859
25.09889984 -2.233953953 -5.146759033
25.10461044 -2.312114 -5.149378777
25.12372017 -2.391629934 -5.154821873
25.13575935 -2.47061491 -5.158854008
25.15340042 -2.550288916 -5.164094925
25.16980934 -2.629992008 -5.169135094
25.17526054 -2.70866704 -5.171957016
25.18726921 -2.788155079 -5.176190853
25.18931007 -2.866633892 -5.178408146
25.20471954 -2.946744919 -5.183447838
25.20042038 -3.024641991 -5.184455872
25.18712997 -3.101461887 -5.183650017
25.16486931 -3.177124977 -5.181028843
25.17831039 -3.257332087 -5.185866833
25.17111015 -3.334949017 -5.186471939
25.16172981 -3.412288904 -5.186674118
24.9894104 -0.8405367732 -5.256896973
24.78824997 -0.9099112749 -5.214829922
24.79315948 -0.9862673879 -5.216487885
24.87701035 -1.066056013 -5.234930992
24.86580086 -1.142014027 -5.233273029
24.86218071 -1.218294978 -5.233273029
24.89447021 -1.296448946 -5.240941048
24.94313049 -1.375728011 -5.252130985
24.95539093 -1.453212976 -5.255653858
24.96742058 -1.530786037 -5.259177208
24.99481964 -1.609452963 -5.266016006
25.01318932 -1.687708974 -5.270988941
25.02156067 -1.765405059 -5.273890018
25.02675056 -1.842952013 -5.276169777
25.03463936 -1.920773029 -5.279070854
25.05007935 -1.999281049 -5.283629894
25.05455017 -2.077013969 -5.285909176
25.07242966 -2.155966043 -5.291090012
25.08226967 -2.234353065 -5.294612885
25.09185028 -2.312819958 -5.298136234
25.08853912 -2.390161037 -5.298964977
25.11613083 -2.470568895 -5.306425095
25.12011909 -2.548798084 -5.3089118
25.13747025 -2.628499031 -5.31430006
25.15457916 -2.708329916 -5.319687843
25.16171074 -2.787214041 -5.323002815
25.16957092 -2.866277933 -5.326526165
25.18202972 -2.945985079 -5.331085205
25.17384911 -3.023344994 -5.331293106
25.19358063 -3.104152918 -5.337509155
25.15481949 -3.177752018 -5.331293106
25.14398003 -3.254786015 -5.331085205
25.11932945 -3.329982042 -5.32797718
25.07991982 -3.403084993 -5.321760178
24.8090992 -0.9168698192 -5.364255905
24.75345039 -0.9908692241 -5.352769852
24.82350922 -1.069962025 -5.368721962
24.85037041 -1.147511005 -5.375316143
24.85746956 -1.224274039 -5.377655029
24.91213989 -1.30359304 -5.390417099
24.93437004 -1.381474972 -5.396159172
24.9426899 -1.458706975 -5.398923874
24.94199944 -1.535464048 -5.399775028
24.9829998 -1.614938974 -5.409770966
24.96721077 -1.690852046 -5.407432079
24.98822021 -1.769304991 -5.413174152
24.99632072 -1.846968055 -5.416152
24.99832916 -1.924247026 -5.417852879
25.02541924 -2.003582001 -5.425085068
25.00844002 -2.079458952 -5.422745228
25.04965019 -2.160286903 -5.433166981
25.11005974 -2.243125916 -5.447843075
25.09333038 -2.319252968 -5.445715904
25.11333084 -2.398828983 -5.451671124
25.10585022 -2.475863934 -5.451671124
25.10396957 -2.553468943 -5.45294714
25.10087967 -2.630984068 -5.45401001
25.09560013 -2.708295107 -5.454648972
25.14641953 -2.79185009 -5.467623234
25.15423965 -2.870868921 -5.47123909
25.3384304 -2.970665932 -5.51356411
25.14779091 -3.026559114 -5.473791122
25.12869072 -3.102499962 -5.471663952
25.13843918 -3.182033062 -5.475917816
25.0762291 -3.252356052 -5.464431763
25.05644989 -3.327986956 -5.462306023
25.09744072 -3.411818981 -5.473577976
24.68894005 -1.057389021 -5.502091885
24.79182053 -1.138000011 -5.525944233
25.51721001 -1.249724984 -5.689623833
24.85746002 -1.293900013 -5.542356014
24.87675095 -1.371443033 -5.547606945
24.90652084 -1.449740052 -5.555265903
24.91559029 -1.526980996 -5.558330059
24.92831993 -1.604540944 -5.562269211
24.94079971 -1.682193041 -5.566206932
24.94915009 -1.759662986 -5.569271088
24.95433998 -1.836984992 -5.571678162
24.96706963 -1.914952993 -5.575836182
24.97470093 -1.992627025 -5.578898907
24.99082947 -2.07109189 -5.583931923
25.00185966 -2.149255991 -5.587871075
25.01749992 -2.227940083 -5.592904091
25.03193092 -2.306651115 -5.597717762
25.05192947 -2.386027098 -5.603845119
25.06682968 -2.465069056 -5.608878136
25.07564926 -2.543633938 -5.612597942
25.09781075 -2.623697042 -5.619381905
25.1129303 -2.703188896 -5.624633789
25.0967598 -2.779362917 -5.622882843
25.12882996 -2.860980034 -5.632073879
25.10927963 -2.93681407 -5.629666805
25.07205009 -3.010462046 -5.623321056
25.01717949 -3.081763029 -5.613036156
24.99406052 -3.156789064 -5.609972
24.96393013 -3.230825901 -5.605377197
24.93456078 -3.304836035 -5.601000786
24.65119934 -1.134610057 -5.64831686
24.67387962 -1.211524963 -5.654380798
24.77028084 -1.292451978 -5.677515984
24.76814079 -1.368548036 -5.677966118
24.81732941 -1.447653055 -5.690319061
24.83610916 -1.525218964 -5.695710182
24.85466003 -1.602913976 -5.701099873
24.86128998 -1.679947972 -5.703794956
24.86185074 -1.75662601 -5.705142975
24.87870026 -1.834542036 -5.710309982
24.8865509 -1.911906004 -5.71345377
24.90097046 -1.989879012 -5.71817112
24.90251923 -2.066910028 -5.719967842
24.90867996 -2.144387007 -5.722887993
24.94080925 -2.224260092 -5.731872082
24.93870926 -2.301214933 -5.732995033
24.9645195 -2.380861998 -5.740632057
24.97940063 -2.459638119 -5.745798111
24.97464943 -2.536557913 -5.746471882
24.99098015 -2.61570406 -5.752087116
25.00221062 -2.694452047 -5.756578922
24.97252083 -2.768780947 -5.751637936
24.97262001 -2.846376896 -5.753658772
24.94345093 -2.92059803 -5.748941898
24.88308907 -2.990942955 -5.737038136
24.85058975 -3.064405918 -5.731647015
24.86910057 -3.144177914 -5.738161087
24.8767395 -3.222714901 -5.742204189
25.00064087 -1.075724959 -5.875452995
24.89222908 -1.147578001 -5.850606918
24.68154907 -1.213757038 -5.801607132
24.59802055 -1.285308003 -5.782742977
24.61047935 -1.361680984 -5.786653996
24.57897949 -1.435590029 -5.780211926
24.64537048 -1.515351057 -5.79700613
24.69595909 -1.594529986 -5.810119152
24.73852921 -1.673508048 -5.821391106
24.78957939 -1.753379941 -5.834733963
24.80738068 -1.831145048 -5.840254784
24.81911087 -1.908588052 -5.844396114
24.82381058 -1.985576034 -5.846927166
24.83020973 -2.062772989 -5.849916935
24.84703064 -2.140947104 -5.855438232
24.85294914 -2.218291044 -5.858428955
24.87315941 -2.297034979 -5.864871025
24.87471962 -2.374166012 -5.866940975
24.87700081 -2.451423883 -5.869241238
24.89065933 -2.529898882 -5.87430191
24.85471916 -2.603310108 -5.867630959
24.82048988 -2.676733017 -5.861420155
24.81312943 -2.752975941 -5.86164999
24.76676941 -2.901777029 -5.854747772
24.76645088 -2.978792906 -5.856819153
24.79776001 -3.059767008 -5.866480827
25.63824081 -0.8687434793 -6.185050011
25.45288086 -0.9406518936 -6.140715122
25.43239975 -1.018036008 -6.136469841
25.3398304 -1.092208982 -6.114775181
25.34995079 -1.170572042 -6.118075848
25.38312912 -1.250154972 -6.127038002
25.3248291 -1.325181007 -6.113831997
24.68897057 -1.367882013 -5.96031189
25.42584038 -1.486956 -6.140479088
25.54920006 -1.572834015 -6.171607018
25.55588913 -1.651962042 -6.174438
25.55652046 -1.730752945 -6.175851822
25.55592918 -1.809494019 -6.177031994
25.55414009 -1.888175964 -6.177975178
25.59280014 -1.969997048 -6.188821793
25.59437943 -2.049124956 -6.190709114
25.58991051 -2.127799034 -6.191181183
25.59295082 -2.207133055 -6.193539143
25.59185982 -2.286159039 -6.194953918
25.59827042 -2.36591506 -6.198255062
25.60927963 -2.446193933 -6.202735901
25.67127991 -2.531615973 -6.219715118
25.65179062 -2.609183073 -6.21688509
25.68040085 -2.691718102 -6.225845814
25.66717911 -2.76996994 -6.224667072
25.6933403 -2.852562904 -6.233157158
25.62943077 -2.925095081 -6.219715118
25.71298981 -3.014573097 -6.242353916
25.66889 -3.089266062 -6.233863831
25.6467495 -3.16645503 -6.230799198
25.44805908 -1.255239964 -6.293639183
25.44989967 -1.333611965 -6.295085907
25.45343971 -1.412114978 -6.297016144
25.4586792 -1.490764976 -6.299427986
25.45591927 -1.568984032 -6.299911022
25.45582962 -1.647387028 -6.301116943
25.47872925 -1.727378964 -6.308113098
25.48493004 -1.806362033 -6.311007977
25.48991966 -1.885326982 -6.313662052
25.49465942 -1.964339018 -6.316316128
25.5165596 -2.044792891 -6.323310852
25.52758026 -2.12451601 -6.327653885
25.55574989 -2.205826044 -6.336338997
25.60396004 -2.289143085 -6.350090027
25.59295082 -2.367326021 -6.349124908
25.55079079 -2.44250989 -6.340439796
25.58276939 -2.524794102 -6.35033083
25.63380051 -2.609261036 -6.365046978
25.66138077 -2.691636086 -6.373972893
25.71379089 -2.776912928 -6.389171124
25.69935989 -2.855145931 -6.387723923
25.72711945 -2.938159943 -6.396891117
25.71027946 -3.016171932 -6.39496088
25.72981071 -3.098515034 -6.402197838
25.72595978 -3.178152084 -6.403645992
25.74690056 -3.260963917 -6.411365986
25.47396088 -0.8549553156 -6.461423874
25.48574066 -0.933637023 -6.465130806
25.47792053 -1.011628985 -6.463894844
25.47662926 -1.089872956 -6.464389801
25.4625206 -1.167539954 -6.461670876
25.45590973 -1.245509982 -6.460928917
25.43456078 -1.322695017 -6.45648098
25.44392014 -1.401468039 -6.45994091
25.45690918 -1.480535984 -6.464389801
25.49192047 -1.796705008 -6.478477955
25.5123806 -1.876826048 -6.485151768
25.4997406 -1.954568982 -6.483421803
25.49651909 -2.033023119 -6.484162807
25.53458977 -2.11491704 -6.49553299
25.53087044 -2.193495035 -6.496273994
25.54043007 -2.273272991 -6.500475883
25.60762978 -2.35846591 -6.519507885
25.61668015 -2.438580036 -6.523709774
25.62643051 -2.518866062 -6.528159142
25.59833908 -2.595421076 -6.522968769
25.61724091 -2.676764011 -6.52989006
25.62232971 -2.915932894 -6.537798882
25.63636017 -2.997229099 -6.543731213
25.6299305 -3.076212883 -6.544472218
25.62037086 -3.154829979 -6.544472218
25.45627022 -0.8606925011 -6.613334179
25.43029976 -0.937930882 -6.607267857
25.44953918 -1.016834021 -6.613080978
25.44437027 -1.094823956 -6.612576008
25.40609932 -1.171277046 -6.603477001
25.42170906 -1.250167012 -6.608531952
25.44481087 -1.329568028 -6.615609169
25.42901993 -1.406983018 -6.612576008
25.37145996 -1.481888056 -6.598674774
25.35223007 -1.636912942 -6.596148014
25.78083992 -1.823508024 -6.711145878
25.45574951 -2.429631948 -6.639619827
25.64941978 -2.527550936 -6.692442894
25.55547905 -2.676719904 -6.671970844
25.51733017 -2.751893997 -6.664135933
25.42070007 -0.8524973989 -6.760608196
25.42182922 -0.930624187 -6.761641979
25.39761925 -1.007771015 -6.755959034
25.39633942 -1.085767031 -6.756474972
25.3716507 -1.162703991 -6.75079298
25.36025047 -1.240160942 -6.748725891
25.28796005 -1.47004199 -6.732709885
25.28237915 -2.719527006 -6.75880003
25.31521034 -2.801647902 -6.769906998
25.40535927 -2.890547991 -6.796514034
25.41890907 -3.129326105 -6.807621002
25.39673042 -3.205723047 -6.804263115
25.33091927 -0.8513692021 -6.893177986
25.23570061 -1.158354998 -6.870483875
25.2252903 -1.235440969 -6.868637085
25.0775795 -1.382505059 -6.830376148
25.05878067 -1.458595991 -6.826416969
25.07118988 -2.07774806 -6.841722012
25.0771904 -2.155729055 -6.845151901
25.09255981 -2.234621048 -6.851222038
25.08366013 -2.311415911 -6.85069418
25.09662056 -2.390280962 -6.856235027
25.15155983 -2.47339797 -6.87338686
25.17071915 -2.553273916 -6.880774975
25.1886692 -2.633192062 -6.887899876
25.1919899 -2.711694956 -6.891067028
25.23531914 -2.794701099 -6.905315876
25.25250053 -2.875053883 -6.912439823
25.23207092 -2.951169968 -6.909274101
25.23439026 -3.029946089 -6.912439823
25.27474976 -3.113480091 -6.926161766
25.33301926 -3.199584961 -6.944897175
25.3967495 -3.286819935 -6.965215206
25.28039932 -0.9216896892 -7.036794186
24.96567917 -0.9869055152 -6.949500084
25.02218056 -1.066038966 -6.96620512
25.02457047 -1.143064022 -6.967821121
24.97476959 -1.217579961 -6.954888821
24.98341942 -1.294844985 -6.95839119
25.01586914 -1.373494983 -6.968628883
24.9951992 -1.449287057 -6.964048862
40.69657898 -8.755885124 -3.640995979
40.58158112 -8.849308014 -3.895872116
40.58815002 -8.868226051 -4.138339996
40.81666946 -8.633255959 -4.42804718
40.88026047 -8.795407295 -4.689373016
40.87168121 -8.788759232 -4.94699192
39.85308838 -9.208883286 -5.593780994
39.81404114 -9.328621864 -5.592280865
39.77656174 -9.448664665 -5.591053009
39.81296921 -9.330999374 -5.846859932
39.7677803 -9.449210167 -5.84443903
39.71551132 -9.565608978 -5.841020107
39.93799973 -9.233766556 -6.116940022
39.88253021 -9.349931717 -6.112782001
39.87192917 -9.476590157 -6.11560297
40.01039124 -9.227892876 -6.391293049
39.97418976 -9.348799706 -6.39005518
39.94820023 -9.472078323 -6.390520096
