# .PCD v0.7 - Point Cloud Data file format
VERSION 0.7
FIELDS x y z
SIZE 4 4 4
TYPE F F F
COUNT 1 1 1
WIDTH 116
HEIGHT 1
VIEWPOINT 0 0 0 1 0 0 0
POINTS 116
DATA ascii
14.97161961 31.1438694 -6.85302496
12.38393974 34.29172134 -7.683546066
12.48707008 34.24805069 -7.682302952
14.8593502 30.91552925 -7.42670393
14.56733036 30.07132912 -7.23358202
14.65266037 30.01244926 -7.230178833
24.50458908 -36.90407181 -5.8016572
30.9637394 -30.03145027 -5.901106834
28.20688057 -38.28205109 -6.50921011
24.56896019 -36.53142929 -6.023601055
24.45292091 -36.6008606 -6.022644997
24.46117973 -37.85781097 -6.167919159
29.07015038 -37.7340889 -6.817130089
28.89407921 -37.74451065 -6.802884102
28.7134304 -37.74789047 -6.787498951
28.54018974 -37.76000977 -6.773822784
28.53655052 -37.99697113 -6.800746918
25.6252594 -35.46160889 -6.25841713
25.48171043 -35.49182129 -6.24986887
25.3227005 -35.49972916 -6.237474918
24.45384979 -36.12524033 -6.240039825
24.40587044 -36.29373169 -6.256278992
24.39226913 -36.51493835 -6.281637192
24.35018921 -36.69515991 -6.299870968
24.2963295 -36.85895157 -6.315257072
24.30838013 -37.12459946 -6.348164082
24.32551003 -37.40063095 -6.382781029
24.88496017 -35.34740067 -6.45284605
24.77809906 -35.42601013 -6.453291893
24.62414932 -35.43690109 -6.441411972
24.40847969 -35.59057999 -6.442006111
24.26502991 -35.85105896 -6.462202072
24.22500992 -36.02956009 -6.481060982
24.29107094 -36.61095047 -6.559172153
24.35902977 -37.20690918 -6.639511108
24.28790092 -37.34778976 -6.651391029
24.94228935 -35.1591301 -6.711853027
24.81495094 -35.2080307 -6.706593037
24.68754959 -35.25648117 -6.701333046
24.57476044 -35.32556915 -6.700095177
24.46626091 -35.4007988 -6.700095177
24.35810089 -35.47650909 -6.700250149
31.35474968 -29.65867043 -5.651484013
31.29593086 -29.78549004 -5.657364845
30.96578026 -27.89982033 -5.960398197
30.82764053 -28.11997986 -5.966950893
30.97822952 -28.43194008 -6.01324892
24.2124691 -29.13982964 -6.111073017
24.1260891 -29.21777916 -6.111874104
24.26966095 -29.0308094 -6.340797901
27.44763947 -27.94828987 -6.818881989
33.32966995 5.987706184 -6.714929104
33.36674881 5.783253193 -6.71512413
33.37852859 5.679871082 -6.713951111
33.34495926 5.897766113 -6.930030823
33.37253952 5.797112942 -6.932045937
33.37955093 5.692890167 -6.929829121
24.08435059 46.75040054 -7.85854578
24.20442963 46.63153076 -7.850972176
24.32126045 46.50709915 -7.842507839
42.89162064 6.90380621 -4.076611042
42.91260147 6.772183895 -4.076611042
42.92235184 6.638823986 -4.075572968
40.72034836 -8.897107124 -4.151943207
42.38727951 7.496774197 -4.569929123
42.40909958 7.366526127 -4.569821835
42.4148407 7.233541012 -4.568013191
42.41524887 7.099769115 -4.565670967
40.76511002 -8.622349739 -4.422406197
40.74332047 -8.748417854 -4.42293787
42.29219818 7.194759846 -4.811932087
42.37424088 6.408542156 -4.806989193
42.47077942 6.156827927 -4.813617229
42.31579971 6.284732819 -5.601426125
42.15533066 6.128783226 -5.577507973
39.98469925 -9.229316711 -5.371525764
39.95137024 -9.350814819 -5.370872021
41.84220886 7.920865059 -5.825400829
41.85366058 7.790101051 -5.823626995
41.85007095 7.656668186 -5.819808006
41.86557007 7.526834965 -5.818717003
41.89723969 7.399909019 -5.819943905
41.88948822 7.266087055 -5.81571579
41.90962982 7.137205124 -5.815443039
41.92449188 7.007451057 -5.814487934
41.94285965 6.878314018 -5.814078808
41.96278 6.749445915 -5.813941956
41.98720932 6.621291161 -5.814487934
42.00635147 6.492293835 -5.814352036
42.03096008 6.364130974 -5.815033913
42.05421066 6.235733032 -5.815578938
42.10058975 6.110667229 -5.81939888
39.8651619 -9.340600014 -5.599510193
39.81800079 -9.458510399 -5.59691906
39.80998993 -9.585727692 -5.599919796
41.82715988 7.915337086 -6.08832407
41.96607971 7.80834198 -6.10513401
41.90999985 7.664951801 -6.093451977
41.84952927 7.521279812 -6.081201077
41.86558914 7.391646862 -6.08020401
41.86661911 7.259449959 -6.077070236
41.87405014 7.128479004 -6.074933052
41.89083862 6.999163151 -6.074221134
41.90626144 6.869648933 -6.073366165
41.92713928 6.741051197 -6.073366165
41.94860077 6.612542152 -6.073507786
41.98923111 6.486989021 -6.076499939
39.79956055 -9.456760406 -5.849140167
39.77999115 -9.581136703 -5.850564003
40.09630966 -9.140865326 -6.136987209
39.98424911 -9.244458199 -6.124067783
39.91236877 -9.356927872 -6.117384911
39.9007988 -9.483448982 -6.12005806
39.98862076 -9.352174759 -6.392375946
39.95685959 -9.47413063 -6.391911983
40.03076172 -9.509051323 -6.639976978
