# .PCD v0.7 - Point Cloud Data file format
VERSION 0.7
FIELDS x y z
SIZE 4 4 4
TYPE F F F
COUNT 1 1 1
WIDTH 69
HEIGHT 1
VIEWPOINT 0 0 0 1 0 0 0
POINTS 69
DATA ascii
14.97698975 30.4631691 -6.947165966
14.76653004 30.96538925 -7.42776823
14.70442963 30.59321022 -7.348859787
14.58778 30.11354065 -7.243791103
14.67066956 30.04932022 -7.2391119
30.97369003 -30.04110909 -5.903017044
31.27840042 -29.58645058 -5.637629986
31.30751038 -29.98010063 -5.676186085
30.95768929 -27.89253044 -5.958830833
30.93507004 -27.19525909 -6.14663887
30.91296959 -27.34441948 -6.158965111
30.87251091 -27.47792053 -6.167726994
24.21499062 -29.14286995 -6.111712933
24.13991928 -29.2345295 -6.11539793
27.38285065 -26.23753929 -6.35509491
24.10980988 -26.92485046 -6.724619865
24.02055931 -26.99135017 -6.722780228
24.47373009 -26.84313011 -6.975618839
24.36554909 -26.88970947 -6.968224049
24.05240059 -3.037899971 -4.205307007
24.07031059 -3.115216017 -4.210135937
24.05088043 -3.187753916 -4.20841217
21.0138092 -3.84303689 -4.485591888
20.88363075 -3.885476112 -4.460103035
20.75625992 -3.927699089 -4.435235023
20.71161079 -3.858930111 -4.546253204
20.54030991 -3.892258883 -4.510945797
20.36515999 -3.923832893 -4.474789143
20.30411911 -3.976716995 -4.463942051
19.92307091 -3.960067034 -4.515631199
19.72537994 -4.046753883 -4.476024151
19.26519012 -4.077723026 -4.49920702
18.89497948 -4.122289181 -4.531732082
18.74827003 -4.150576115 -4.499295235
18.72405052 -4.205515862 -4.496534824
18.43590927 -4.201887131 -4.548453808
18.31594086 -4.233697891 -4.521807194
18.40221024 -4.313154221 -4.546567917
25.3634491 -0.8613188863 -6.268548965
25.36455917 -0.9392722249 -6.269514084
18.2630291 -4.223104954 -4.619643211
18.06763077 -4.236370087 -4.573082924
17.98846054 -4.276073933 -4.556196213
17.88278961 -4.308969021 -4.53255415
25.26865005 -0.8480554223 -6.409023762
25.28916931 -0.9264270067 -6.414956093
17.57369041 -4.340682983 -4.577260971
16.43637085 -4.437907219 -4.617009163
16.3463707 -4.467464924 -4.59537077
15.91755009 -4.556269169 -4.591499805
40.64009094 -8.743732452 -3.635890007
40.64286041 -8.862669945 -3.901812077
40.62411118 -8.876083374 -4.142041206
40.77775955 -8.625024796 -4.423789978
40.82508087 -8.778738976 -4.941308975
40.98162842 -9.459458351 -5.506408215
40.89535141 -9.317657471 -5.737009048
39.83623123 -9.333820343 -5.595417976
39.80450821 -9.455305099 -5.59500885
39.77339172 -9.576914787 -5.594736099
39.85202026 -9.211262703 -5.848427773
39.83705902 -9.336645126 -5.850421906
39.79764175 -9.456302643 -5.848855019
39.96691132 -9.240448952 -6.121395111
39.90948105 -9.356250763 -6.116940022
39.88829041 -9.480476379 -6.118127823
40.03638077 -9.233888626 -6.395470142
40.02325058 -9.360275269 -6.397944927
39.98088837 -9.479828835 -6.395780087
