# .PCD v0.7 - Point Cloud Data file format
VERSION 0.7
FIELDS x y z
SIZE 4 4 4
TYPE F F F
COUNT 1 1 1
WIDTH 600
HEIGHT 1
VIEWPOINT 0 0 0 1 0 0 0
POINTS 600
DATA ascii
14.30869961 -18.56093025 -5.937922001
14.25522041 -18.60935974 -5.939404964
14.19277954 -18.64607048 -5.937180042
14.21411991 -18.56535912 -6.067657948
14.15826988 -18.61042023 -6.068162918
14.10461044 -18.65839958 -6.069680214
14.04730034 -18.70158005 -6.069680214
13.99158955 -18.74691963 -6.070437908
14.17757988 -18.50720024 -6.193353176
14.12014961 -18.54984093 -6.193093777
14.0719099 -18.60462952 -6.196969032
14.01708984 -18.6508007 -6.198001862
13.95691967 -18.68984985 -6.196711063
13.90412045 -18.73879051 -6.198777199
13.88784027 -18.8373394 -6.217376232
14.22542953 -18.45505905 -6.334031105
14.16347027 -18.4917202 -6.331655979
14.10258007 -18.52971077 -6.329809189
14.03868008 -18.56365967 -6.326642036
13.98456001 -18.61050034 -6.327960968
13.92278004 -18.64712906 -6.32585001
13.86550999 -18.68976021 -6.32585001
13.81210995 -18.73764992 -6.327698231
13.75170994 -18.77603912 -6.326377869
14.50214958 -18.45140076 -6.525156975
14.39805984 -18.43507957 -6.503602982
14.36151028 -18.50503922 -6.512763977
14.07697964 -18.6053791 -6.486629009
13.97006989 -18.58227921 -6.463459015
13.90781021 -18.61811066 -6.461033821
13.84774971 -18.65682983 -6.459687233
13.7904501 -18.69922066 -6.459687233
13.73700047 -18.74687958 -6.461573124
13.69246006 -18.8068409 -6.4677701
14.56437016 -18.66440964 -6.729967117
14.46168041 -18.65049934 -6.708794117
14.3885498 -18.67421913 -6.701369762
14.08561993 -18.6332798 -6.639503002
13.98104 -18.6133709 -6.616956234
13.90662003 -18.63306046 -6.608705997
13.8482399 -18.67408943 -6.608157158
13.79030991 -18.71571922 -6.607882023
14.61569023 -18.71291924 -6.902516842
14.55644035 -18.75539017 -6.901675224
14.41853046 -18.69584084 -6.86322403
14.20468998 -18.65414047 -6.815509796
14.10743046 -18.64481926 -6.796144009
14.06285 -18.70490074 -6.80231905
14.00483036 -18.74718094 -6.802038193
14.51054955 -18.71268082 -7.02279377
14.30632019 -18.68495941 -6.979057789
14.21121025 -18.67918968 -6.960477829
14.09344959 -18.76221085 -6.959047794
14.01805019 -18.78154945 -6.950187206
13.93809986 -18.79445076 -6.9390378
13.85649967 -18.80471992 -6.927031994
13.73071003 -18.8754406 -6.921886921
14.21304989 -18.67270088 -7.102138996
14.14358044 -18.70019913 -7.096024036
14.09130955 -18.75037956 -7.09864521
14.02285004 -18.77895927 -7.093111992
13.92811966 -18.77194977 -7.074182987
13.88181019 -18.82999992 -7.08000803
13.82059002 -18.86787033 -7.078259945
13.58996964 -18.91580009 -7.048849106
14.13597965 -18.69311905 -7.245031834
14.08257008 -18.74173927 -7.24710989
14.09471035 -18.87821007 -7.28332901
13.98779011 -18.85540962 -7.257798195
13.89418983 -18.84980965 -7.239093781
13.81484985 -18.86306953 -7.227812767
13.76646996 -18.91848946 -7.232860088
10.62907982 27.80426025 -7.73552084
14.98458004 30.92745972 -6.815272808
14.99298 30.49568939 -6.95462513
14.52369022 30.21715927 -7.258040905
14.57756042 30.09243011 -7.238687038
14.65351963 30.01420021 -7.230605125
14.61942005 30.20056915 -7.484860897
34.68798065 -43.6252594 -6.607963085
30.55359077 -3.300494909 -3.436264038
30.55813026 -3.395863056 -3.437947989
30.59396935 -3.494899035 -3.443228006
30.54165077 -3.583878994 -3.438509941
30.65616989 -3.788151979 -3.454124928
30.74198914 -3.894551039 -3.465245962
30.70034027 -3.985009909 -3.461875916
30.73229027 -4.085071087 -3.466931105
30.74914932 -4.183355808 -3.470300913
30.77849007 -4.283564091 -3.475131989
30.79079056 -4.38161087 -3.478053093
30.79390907 -4.478487015 -3.479962111
30.76725006 -4.571041107 -3.478502035
30.79925919 -4.672418118 -3.483782053
30.77593994 -4.765518188 -3.48277092
30.72192001 -4.853712082 -3.478276968
30.69020081 -4.945254803 -3.476366997
30.6335907 -5.225839138 -3.475244045
30.62915993 -5.321838856 -3.476592064
30.6312809 -5.419072151 -3.478727102
30.57563019 -3.109937906 -3.626669884
30.28447914 -3.268193007 -3.594109058
30.26543045 -3.360104084 -3.593043089
30.2796402 -3.455754995 -3.596003056
30.31426048 -3.553953886 -3.601449966
30.32095909 -3.649075031 -3.603580952
30.3776207 -3.750475883 -3.61175108
30.36301994 -3.843281031 -3.611396074
30.4101696 -3.944077969 -3.618499994
30.40974045 -4.038925171 -3.619920969
30.45919037 -4.140626907 -3.627379894
30.47682953 -4.238295078 -3.631051064
30.48335075 -4.334571838 -3.633419037
30.49938011 -4.432356834 -3.636970997
30.47582054 -4.524448872 -3.63578701
30.49124908 -4.622391224 -3.63933897
30.52696991 -4.723658085 -3.645378113
30.52409935 -4.819149017 -3.646797895
30.5062294 -4.91230011 -3.64644289
30.50572014 -5.008281231 -3.648219109
30.5039196 -5.104142189 -3.649877071
30.50181961 -5.200037956 -3.651535034
30.60802078 -5.314826012 -3.666335106
30.56130028 -3.105221033 -3.820722103
30.23189926 -3.165501118 -3.780339003
30.22896004 -3.258980989 -3.781210899
30.23262024 -3.353236914 -3.782955885
30.2478199 -3.448894978 -3.786196947
30.25484085 -3.543755054 -3.788439989
30.27140999 -3.639874935 -3.79192996
30.29751968 -3.737343073 -3.796667099
30.3213501 -3.834758043 -3.801153898
30.33797073 -3.931461096 -3.804768085
30.35527992 -4.028432846 -3.808506966
30.37521935 -4.125947952 -3.812621117
30.39189911 -4.223215103 -3.816359997
30.40728951 -4.320481777 -3.819973946
30.42237091 -4.417883873 -3.823589087
30.43419075 -4.514983177 -3.82682991
30.44864082 -4.612640858 -3.830444098
30.46278954 -4.710430145 -3.834059
30.46974945 -4.807268143 -3.836801052
30.47542953 -4.904035091 -3.839417934
30.47884941 -5.000559807 -3.841785908
30.47607994 -5.096170902 -3.843406916
30.47009087 -5.19131279 -3.844652891
30.52928925 -5.297829151 -3.854249954
30.3889904 -3.081365108 -3.988466978
30.19894981 -3.155719042 -3.964549065
30.22953987 -3.252703905 -3.969907999
30.20660973 -3.344012976 -3.968208075
30.21492004 -3.438800097 -3.970691919
30.22687912 -3.53413105 -3.973697901
30.24935913 -3.630867958 -3.978142023
30.26859093 -3.727411985 -3.982192993
30.28750038 -3.824107885 -3.986244917
30.30610085 -3.920955896 -3.990297079
30.31949043 -4.017302036 -3.993695021
30.34827995 -4.11590004 -3.999183893
30.3689003 -4.21362114 -4.003627777
30.37939072 -4.310114861 -4.006763935
30.40036011 -4.408277988 -4.011339188
30.41023064 -4.505012035 -4.014475822
30.41097069 -4.600512981 -4.016437054
30.43100929 -4.699088097 -4.021010876
30.43799019 -4.795823097 -4.023886204
30.44368935 -4.892487049 -4.026630878
30.4471302 -4.988910198 -4.02911377
30.45808029 -5.086708069 -4.032642841
30.44232941 -5.180128098 -4.032642841
30.56011963 -5.296700001 -4.05054903
30.57858086 -3.108112097 -4.193833828
30.21717072 -3.165064096 -4.145136833
30.19450951 -3.256372929 -4.143362999
30.20013046 -3.35074091 -4.145545959
30.20152092 -3.444725037 -4.147182941
30.20852089 -3.539441109 -4.149638176
30.22899055 -3.635889053 -4.154003143
30.24818039 -3.732374907 -4.158232212
30.26606941 -3.828886986 -4.162323952
30.29544067 -3.927073956 -4.16805315
30.31467056 -4.024171829 -4.172418118
30.33457947 -4.121559143 -4.176918983
30.34337997 -4.217606068 -4.17992115
30.35972023 -4.314859867 -4.18401289
30.36889076 -4.411258221 -4.187150002
30.38167 -4.50833416 -4.190833092
30.39119911 -4.605084896 -4.194107056
30.40140915 -4.702087879 -4.197516918
30.41032028 -4.799042225 -4.200790882
30.41893005 -4.89609623 -4.204064846
30.4448204 -4.996135235 -4.209794044
30.43520927 -5.090496063 -4.21061182
30.43020058 -5.185676098 -4.212112904
30.57518959 -5.306965828 -4.234620094
30.56851959 -5.402469158 -4.235983849
30.17917061 -3.163193941 -4.328846931
30.18309975 -3.257253885 -4.330842018
30.19067001 -3.351804972 -4.333405972
30.18811035 -3.445311069 -4.334546089
30.19411087 -3.53986907 -4.336966991
30.21258926 -3.636034012 -4.341240883
30.23666 -3.73307395 -4.34637022
30.25844955 -3.830046892 -4.351212978
30.28190041 -3.927443027 -4.356340885
30.3001194 -4.024366856 -4.360757828
30.3141098 -4.12090683 -4.364603996
30.33073997 -4.217979908 -4.368877888
30.35194969 -4.315889835 -4.373864174
30.3669796 -4.413115978 -4.377995014
30.38266945 -4.510620117 -4.382267952
30.38727951 -4.606629848 -4.384974957
30.40430069 -4.704679012 -4.389533997
30.41514969 -4.801949024 -4.393238068
30.4217701 -4.898700237 -4.396371841
30.42222977 -4.994575024 -4.398651123
30.42921066 -5.091641903 -4.401926994
30.42515945 -5.186970234 -4.403636932
30.47930908 -5.292479992 -4.413894176
30.61108971 -5.412156105 -4.435546875
30.40833092 -3.095042944 -4.551305771
30.1754303 -3.164911985 -4.517595768
30.17148018 -3.258111 -4.518486977
30.16921043 -3.35153389 -4.519674778
30.17449951 -3.445869923 -4.522050858
30.17950058 -3.540271044 -4.524426937
30.18617058 -3.634970903 -4.52710104
30.20137978 -3.730837107 -4.53110981
30.22020912 -3.827326059 -4.535713196
30.24559021 -3.924856901 -4.54135704
30.26379013 -4.021667957 -4.545959949
30.29541016 -4.120491982 -4.552641869
30.30319023 -4.216279984 -4.55576086
30.33514977 -4.315633774 -4.56259203
30.35112953 -4.412948132 -4.567047119
30.35799026 -4.509092808 -4.570165157
30.37334061 -4.606657028 -4.57461977
30.38349915 -4.70359993 -4.578332901
30.39431953 -4.800804138 -4.582193851
30.4058094 -4.898275852 -4.586203098
30.40527916 -4.993939877 -4.588430882
30.4102993 -5.090625763 -4.59154892
30.41305923 -5.187057972 -4.594370842
30.41649055 -5.283723831 -4.597341061
30.50336075 -5.395268917 -4.613081932
30.58375931 -3.000968933 -4.773641109
30.42696953 -3.079854965 -4.750434875
30.18646049 -3.149091005 -4.71407795
30.18255043 -3.242320061 -4.715005875
30.13809013 -3.331103086 -4.709590912
30.1395092 -3.424889088 -4.711448193
30.13768959 -3.518371105 -4.71284008
30.15225983 -3.613873005 -4.716863155
30.16946983 -3.709860086 -4.721348763
30.17951012 -3.805120945 -4.724752903
30.19610977 -3.901365042 -4.729238987
30.21925926 -3.998653889 -4.734808922
30.23426056 -4.095059872 -4.739140987
30.26852989 -4.194309235 -4.746566772
30.28877068 -4.291865826 -4.751826763
30.30283928 -4.388735771 -4.756158829
30.32051086 -4.486311913 -4.761109829
30.33786011 -4.584036827 -4.766059875
30.35684967 -4.68221283 -4.771319866
30.36478996 -4.778858185 -4.774878979
30.38998032 -4.878415108 -4.781221867
30.39145088 -4.974339962 -4.7838521
30.39261055 -5.070321083 -4.786481857
30.3944397 -5.166521072 -4.789267063
30.39986038 -5.263454914 -4.792671204
30.42930031 -5.364758968 -4.799942017
30.13869095 -3.156842947 -4.880218029
30.13573074 -3.250032902 -4.881340027
30.13249016 -3.343235016 -4.882461071
30.13091087 -3.436671019 -4.88390398
30.12709045 -3.529900074 -4.885025024
30.13866043 -3.625022888 -4.888710022
30.15287018 -3.720613003 -4.892876148
30.17753983 -3.817687988 -4.898804188
30.19408035 -3.913933039 -4.903450966
30.22302055 -4.012004852 -4.910180092
30.24382973 -4.109228134 -4.915627956
30.27116013 -4.207567215 -4.922196865
30.27667999 -4.303057194 -4.925240993
30.29459953 -4.400465012 -4.9303689
30.30829048 -4.497445107 -4.934854984
30.32655907 -4.5952878 -4.940143108
30.34547997 -4.693438053 -4.945590019
30.35141945 -4.789744854 -4.948955059
30.36581039 -4.887546062 -4.953762054
30.37795067 -4.985159874 -4.958248138
30.37614059 -5.080615044 -4.96049118
30.37598038 -5.176435947 -4.963055134
30.37552071 -5.272305012 -4.965619087
30.38446999 -5.369937897 -4.969783783
30.13158035 -3.158205986 -5.069132805
30.1207695 -3.250528097 -5.068965912
30.1194706 -3.343900919 -5.070463181
30.12181091 -3.437743902 -5.072624207
30.13266945 -3.532665968 -5.076282024
30.15497017 -3.629101038 -5.081933975
30.16717911 -3.72449708 -5.085924149
30.19474983 -3.821984053 -5.09257412
30.20244026 -3.9171381 -5.095900059
30.22546959 -4.014452934 -5.101883888
30.24329948 -4.111281872 -5.107038021
30.26473045 -4.208800793 -5.112856865
30.28194046 -4.305934906 -5.118010998
30.29785919 -4.40307188 -5.122999191
30.31932068 -4.501216888 -5.128983021
30.3307209 -4.598056793 -5.133306026
30.34473038 -4.695460796 -5.13812685
30.36330032 -4.793763161 -5.143780231
30.36499977 -4.889558792 -5.146605968
30.37709999 -4.987166882 -5.151260853
30.37527084 -5.082616806 -5.153588772
30.37120056 -5.177772045 -5.155583858
30.37169075 -5.273793221 -5.158410072
30.45635033 -5.384799957 -5.175701141
30.13616943 -3.150166035 -5.265670776
30.1400795 -3.244082928 -5.268085003
30.13488007 -3.337078094 -5.268948078
30.14015961 -3.431297064 -5.271707058
30.14318085 -3.525351048 -5.274120808
30.15863037 -3.620981932 -5.278777122
30.17181969 -3.716500044 -5.283088207
30.1915493 -3.812995911 -5.288607121
30.21096992 -3.909648895 -5.29412508
30.21739006 -4.004775047 -5.297400951
30.24010086 -4.102227211 -5.303608894
30.25078964 -4.198232174 -5.307747841
30.26995087 -4.295586109 -5.313437939
30.28684044 -4.392815113 -5.318784237
30.29076004 -4.488310814 -5.32188797
30.31970024 -4.587703228 -5.32947588
30.3366394 -4.685511112 -5.334993839
30.35423088 -4.783618927 -5.340684891
30.36178017 -4.880317211 -5.344651222
30.36416054 -4.976308823 -5.347754955
30.71706009 -3.024873972 -5.54794693
30.33563042 -3.081298113 -5.480263233
30.15671921 -3.156622887 -5.449449062
30.16058922 -3.250605106 -5.451942921
30.15048027 -3.343121052 -5.451942921
30.13225937 -3.434714079 -5.450518131
30.14504051 -3.52989006 -5.454792023
30.15751076 -3.625175953 -5.459066868
30.16871071 -3.72045207 -5.463163853
30.18058014 -3.81595397 -5.467439175
30.19020081 -3.911310911 -5.471356869
30.19952011 -4.006762981 -5.475275993
30.21340942 -4.102971077 -5.480084896
30.21433067 -4.197541237 -5.482579231
30.2324791 -4.29464817 -5.488277912
30.24546051 -4.391198158 -5.493086815
30.29317093 -4.493065834 -5.504309177
30.31912994 -4.592026234 -5.511610985
30.33115005 -4.689083099 -5.516420841
30.34481049 -4.786561966 -5.521585941
30.37273026 -4.886516094 -5.529423237
30.39546967 -4.985888004 -5.536368847
30.51222992 -5.390358925 -5.569499016
30.84922028 -3.03459692 -5.762001991
30.44664001 -3.089333057 -5.688054085
30.37542915 -3.176285982 -5.676465034
30.17204094 -3.24862504 -5.640041828
30.14727974 -3.339553118 -5.637282848
30.1398201 -3.432360888 -5.637835026
30.13402939 -3.525383949 -5.638754845
30.17089081 -3.623560905 -5.647768021
30.15476036 -3.715506077 -5.646849155
30.18905067 -3.813792944 -5.655494213
30.18305969 -3.907150984 -5.656598091
30.27032089 -4.012909889 -5.675361156
30.57029915 -4.243714809 -5.736801147
30.44836044 -4.417378902 -5.718773842
30.53520966 -4.909348011 -5.748757839
30.50254059 -5.000144005 -5.745447159
30.54038048 -5.102610111 -5.755564213
30.60210037 -5.209479809 -5.770279884
30.68280983 -5.417149067 -5.791801929
30.68635941 -5.514908791 -5.795664787
30.64569092 -3.022100925 -5.907547951
30.4448204 -3.096635103 -5.87038517
30.12854958 -3.157888889 -5.810846806
30.29623985 -3.457649946 -5.849338055
30.35593987 -4.031781197 -5.874365807
30.43469048 -4.232435226 -5.894653797
30.64575958 -5.224575996 -5.964241028
30.78232956 -5.442430019 -5.997423172
30.31653976 -3.179706097 -6.040681839
30.41486931 -3.284384012 -6.062394142
30.39977074 -3.377139091 -6.061416149
30.34737015 -3.465605021 -6.053005219
30.59133911 -3.683746099 -6.106404781
30.32995033 -3.16941309 -6.236960888
30.33274078 -3.263812065 -6.239582062
30.54318047 -3.951637983 -6.299252987
30.25732994 -3.163934946 -6.404736996
30.10316086 -3.33466506 -6.376140118
28.99872971 -3.392549992 -6.14508009
29.01926994 -3.485234022 -6.151710987
29.01716995 -3.575325012 -6.153575897
29.0487709 -3.669727087 -6.162693977
29.06838036 -3.853554964 -6.171813011
30.25528908 -3.171171904 -6.582115173
29.48456001 -3.273421049 -6.417706013
29.03602982 -3.494452953 -6.326250076
28.96698952 -3.576334953 -6.313488007
28.98999977 -3.850378036 -6.32603693
30.20157051 -3.157000065 -6.770180225
28.69129944 -3.355604887 -6.43844223
28.6644001 -3.441636086 -6.434721947
28.04207993 -3.458108902 -6.472864151
27.31635094 -3.626116991 -6.474041939
24.84676933 -4.316411018 -6.228984833
24.87545967 -4.400054932 -6.239600182
24.76211929 -6.046563148 -6.296291828
24.77878952 -6.292840004 -6.315108776
24.74628067 -6.446474075 -6.31679821
24.78455925 -6.537707806 -6.331755161
24.65850067 9.085330009 -6.663113117
24.64380074 -4.193214893 -6.336357117
24.66233063 -4.274262905 -6.344512939
24.5717392 -4.414025784 -6.327952862
24.89299965 -5.025825977 -6.43769598
24.40391922 -5.161271095 -6.322515011
24.54429054 -5.269684792 -6.363297939
24.32605934 -5.379172802 -6.314853191
24.42478943 -5.479661942 -6.345007896
24.43242073 -5.560162067 -6.351434231
24.39353943 -5.630080223 -6.345748901
24.49220085 -5.732057095 -6.376151085
24.45186996 -5.801801205 -6.370219231
24.51025963 -5.895149231 -6.390238762
24.55265045 -6.064951897 -6.411002159
24.6298008 -6.164250851 -6.436213017
24.60420036 -6.238118172 -6.434483051
23.20755959 -6.188017845 -6.086470127
23.14448929 -6.247317791 -6.074852943
24.92798042 8.233693123 -6.81755209
24.9935894 8.170402527 -6.828672886
26.41654968 -3.837106943 -6.932804108
26.38647079 -3.915435076 -6.928000927
24.42141914 -4.084569931 -6.427818775
24.23320961 -4.282726765 -6.388137817
23.76366997 -4.728108883 -6.289062023
24.13400078 -5.033147812 -6.399765015
23.51003075 -5.129243851 -6.24559021
23.48472023 -5.274886131 -6.247360229
23.4589901 -5.344761848 -6.244832039
23.49621964 -5.429124832 -6.259239197
23.44271088 -5.492576122 -6.249382019
23.48129082 -5.577664852 -6.264294147
23.44525909 -5.6451478 -6.259239197
23.43063927 -5.717739105 -6.259996891
23.39608955 -5.785415173 -6.255446911
23.39512062 -5.861399174 -6.259996891
23.39109993 -5.936717033 -6.263788223
23.41868973 -6.020256996 -6.276173115
23.41134071 -6.095001221 -6.279204845
23.38130951 -6.163836956 -6.276173115
23.39594078 -6.244524002 -6.285271168
23.30755043 -6.297595978 -6.266568184
23.39917946 -6.399447918 -6.296645164
24.71665001 9.453633308 -7.035453796
24.74700928 8.265788078 -6.936003208
24.88139915 8.225914001 -6.966742992
24.90376091 8.148638725 -6.965968132
24.3425293 -4.06452322 -6.558608055
24.31471062 -4.136593819 -6.554473877
23.79352951 -4.273624897 -6.423510075
23.44202995 -4.359141827 -6.335165977
23.38582993 -4.422963142 -6.323543072
23.31712914 -4.484107971 -6.308559895
23.28998947 -4.553028107 -6.304944038
23.27108002 -4.697759151 -6.307527065
23.34930992 -4.788147926 -6.332841873
23.38558006 -4.870396137 -6.346790791
23.39982986 -4.948315144 -6.35479784
23.35430908 -5.013593197 -6.346531868
23.34542084 -5.086658955 -6.348340988
23.36178017 -5.165348053 -6.357122898
23.39673042 -5.248414993 -6.371071815
23.38146019 -5.320384026 -6.371329784
23.3982296 -5.475416183 -6.38502121
23.40294075 -5.552302837 -6.390962124
23.39706039 -5.626787186 -6.394062042
23.40596962 -5.704946995 -6.401295185
23.41180992 -5.782518864 -6.407752991
23.42457962 -5.938405991 -6.421185017
24.68572044 9.266523361 -7.172883034
24.70375061 8.333656311 -7.091874123
24.0841198 -4.175303936 -6.646455765
23.94961929 -4.227715969 -6.612679958
23.74950981 -4.267576218 -6.560698032
23.73345947 -4.339898109 -6.559906006
23.30738068 -4.409966946 -6.448814869
23.2245903 -4.468153 -6.429553032
23.18995094 -4.535313129 -6.423748016
23.04442978 -4.580306053 -6.387069225
23.06052017 -4.657093048 -6.395513058
23.22849083 -4.765221119 -6.44644022
23.2638092 -4.846887112 -6.460425854
23.28562927 -4.926021099 -6.470716953
23.27041054 -4.997437 -6.470716953
23.29454994 -5.077431202 -6.481800079
23.30994034 -5.155746937 -6.490507126
23.33731079 -5.236948967 -6.502645016
23.3604393 -5.468442917 -6.522964001
23.36606979 -5.545431137 -6.529295921
23.3991909 -5.857511044 -6.558321953
23.42598915 -5.940649986 -6.570989132
24.47304916 9.021857262 -7.256643772
24.53679085 8.959943771 -7.267420769
24.53881073 8.875452995 -7.259877205
24.56954956 8.801426888 -7.260953903
24.60370064 8.728582382 -7.263110161
24.58947945 8.638695717 -7.250986099
24.61039925 8.561317444 -7.249369144
24.59557915 8.471663475 -7.237245083
23.88615036 -4.286533833 -6.74877882
23.78762054 -4.344220161 -6.724531174
23.28373909 -4.326031208 -6.584969997
23.10570908 -4.366322041 -6.538090229
23.10354996 -4.439370155 -6.541323185
23.06147003 -4.504689217 -6.533239841
23.1042099 -4.586674213 -6.549406052
23.12495995 -4.664581776 -6.559373856
23.11808968 -4.737052917 -6.561530113
23.11475945 -4.810310841 -6.564763069
23.20919037 -4.904304981 -6.59601593
23.19874001 -4.976497173 -6.597362995
23.22193909 -5.056046963 -6.608408928
23.20726013 -5.127476215 -6.608678818
23.29984093 -5.373320103 -6.649092197
23.11915016 -5.406394958 -6.601943016
23.04998016 -5.464853764 -6.586854935
22.90856934 -5.505609989 -6.551022053
22.92806053 -5.584755898 -6.561530113
22.92204094 -5.657842159 -6.564763069
22.92700005 -5.733747005 -6.571228981
22.95970917 -5.816833019 -6.585778236
22.98093033 -5.897301197 -6.597094059
23.00839996 -5.979650021 -6.610294819
22.9946003 -6.051435947 -6.611641884
22.99547005 -6.12716198 -6.617300987
22.99366951 -6.429901123 -6.639122963
24.08641052 -4.180617809 -6.950765133
24.02329063 -4.245625973 -6.936191082
23.97703934 -4.313350201 -6.926568031
24.0043602 -4.394334793 -6.938391209
23.9765892 -4.465318203 -6.934267044
24.02700996 -4.55102396 -6.952963829
22.85223007 -4.473908901 -6.618879795
22.77898979 -4.532176018 -6.601556778
22.83283043 -4.615757942 -6.621355057
22.73568916 -4.668766022 -6.597157955
22.73254967 -4.740851879 -6.600458145
22.86838913 -4.842442989 -6.644452095
22.85342979 -4.91257906 -6.644452095
22.81571007 -4.977749825 -6.637853146
22.81440926 -5.050841808 -6.641976833
22.80443001 -5.122076035 -6.643627167
22.99296951 -5.238577843 -6.703569889
23.00301933 -5.315155983 -6.711268902
24.11895943 -4.557250023 -7.136874199
24.1303196 -4.63611412 -7.144452095
15.40917015 29.03401947 -7.115114212
23.79422951 11.98373032 -7.083240986
23.86470985 11.83621979 -7.082467079
23.68571091 12.47865009 -7.283445835
23.71961021 12.40369034 -7.28212595
23.68050003 12.29086971 -7.258378029
23.73867989 12.22875977 -7.264710903
23.76405907 12.14972973 -7.261015892
23.79261971 12.07240009 -7.258378029
23.79508972 11.98198986 -7.247823238
23.83173943 11.90892982 -7.247823238
23.85519981 11.82933998 -7.243865013
23.89051056 11.75566959 -7.243600845
23.82237053 12.27844048 -7.457365036
23.76903915 12.15880966 -7.428805828
23.79507065 12.08016014 -7.425302982
15.69526005 35.39048004 -7.682580948
15.80455971 35.34394836 -7.682971954
40.6153717 -8.874172211 -4.141140938
40.65615082 -8.599301338 -4.410484791
40.66263962 -8.731090546 -4.414103985
40.7726593 -8.767466545 -4.934915066
39.7879982 -9.322519302 -5.588597775
39.8418808 -9.337774277 -5.851133823
39.78030014 -9.452184677 -5.846291065
39.93722153 -9.10460186 -6.112483978
39.9408989 -9.234435081 -6.117384911
39.90177917 -9.354445457 -6.11575222
39.87770844 -9.47796154 -6.116494179
39.98247147 -9.221453667 -6.386806011
39.961689 -9.345874786 -6.38804388
39.9347496 -9.468887329 -6.388352871
