# .PCD v0.7 - Point Cloud Data file format
VERSION 0.7
FIELDS x y z
SIZE 4 4 4
TYPE F F F
COUNT 1 1 1
WIDTH 222
HEIGHT 1
VIEWPOINT 0 0 0 1 0 0 0
POINTS 222
DATA ascii
10.64739037 27.8521595 -7.748917103
14.95590019 31.11116982 -6.845788002
14.98260975 30.47459984 -6.94978714
14.51056004 30.18985939 -7.251448154
14.59204006 30.12232971 -7.245917797
14.66423988 30.03614998 -7.23592186
14.59305954 30.14611053 -7.471292973
24.45457077 -36.60334015 -6.023055077
24.42744064 -37.05292892 -6.072570801
24.49099922 -38.16028976 -6.205158234
24.46166992 -38.37308121 -6.227664948
24.42013931 -38.56847 -6.247307777
25.13467979 -35.46580887 -6.217815876
24.98986053 -35.4917717 -6.208841801
24.4971199 -35.95106888 -6.222803116
24.39502907 -36.5190506 -6.28234911
24.38356972 -36.74546814 -6.308560848
24.34917068 -36.9391098 -6.32907486
24.38266945 -37.23804855 -6.367681026
24.3373909 -37.41888046 -6.385914803
24.35353088 -37.69623184 -6.420673847
25.4095192 -35.16761017 -6.476605892
25.26228905 -35.19078064 -6.466507912
25.1438694 -35.25362015 -6.463834763
25.00415039 -35.28622055 -6.455667973
24.87982941 -35.34012985 -6.451509953
24.76732063 -35.41062164 -6.450469971
24.65801048 -35.48561859 -6.450322151
24.46665001 -35.67539978 -6.457449913
24.28997993 -35.88790894 -6.468883991
24.28833961 -36.6068306 -6.558430195
24.32176971 -36.90245819 -6.598227978
24.32490921 -37.15478897 -6.630155087
24.35637093 -37.45307159 -6.670249939
24.89883995 -35.09788895 -6.700095177
24.69379044 -35.26538086 -6.703033924
24.58490944 -35.34017181 -6.702879906
24.48143005 -35.42274094 -6.704271793
24.36368942 -35.48464966 -6.701797009
24.2986908 -35.62371063 -6.714018822
24.22859955 -35.99341965 -6.755791187
30.95694923 -27.8918705 -5.958689213
30.85437012 -27.97142029 -5.955411911
24.23896027 -29.1717205 -6.117802143
24.16192055 -29.26116943 -6.121006012
24.38908005 -28.99242973 -6.348777771
24.2968502 -29.06333923 -6.347947121
27.40623093 -27.9061203 -6.808536053
28.24729919 -24.20969009 -6.923102856
28.11930084 -24.25000954 -6.90985918
24.19898987 -27.02444077 -6.749637127
24.08263969 -27.06110954 -6.740254879
34.99160004 7.067563057 -4.218688965
34.95175934 6.947978973 -4.211229801
34.89786911 6.826037884 -4.202113152
34.8884201 6.713125229 -4.198441982
34.91567993 6.607348919 -4.199271202
34.91041183 6.495475769 -4.196193218
34.9184494 6.386198044 -4.194771767
34.9759903 6.285890102 -4.199389935
34.94427109 6.169577122 -4.193233013
34.95618057 6.061152935 -4.192403793
34.49626923 6.648603916 -4.593080997
34.35412979 7.050920963 -4.790616035
34.42150879 5.97077179 -4.772064209
34.44356918 5.865806103 -4.772610188
34.45162964 5.758472919 -4.771245956
34.46620941 5.652268887 -4.77083683
34.495121 5.548388958 -4.772472858
34.16403961 7.228294849 -4.987421989
34.17831039 7.121831894 -4.986282825
34.18738937 7.014355183 -4.98443079
34.21482086 5.932599068 -4.959359169
34.31793976 5.733804226 -4.969188213
34.29141998 5.621284962 -4.962778091
34.41310883 5.316470146 -4.973176956
34.35337067 5.324150085 -5.40516901
34.16275024 5.817985058 -5.586493015
34.19017029 5.714775085 -5.588096142
34.21533966 5.611132145 -5.589376926
34.21094894 5.502686024 -5.585852146
34.24016953 5.292065144 -5.5852108
33.91098022 7.066123962 -5.801309109
33.94712067 6.424050808 -5.786180019
33.93468094 6.313920021 -5.780693054
33.99269104 6.216876984 -5.787343979
34.12976837 5.702362061 -5.795156956
34.13198853 5.487671852 -5.789670944
34.09703827 5.374793053 -5.780858994
34.13967896 5.274225235 -5.785347939
33.88008118 7.06968689 -6.020118237
33.88135147 6.961546898 -6.016496181
33.88903046 6.85483408 -6.014081955
33.88961029 6.74679184 -6.010460854
33.89468002 6.63975811 -6.00770092
33.89651871 6.532196999 -6.004425049
33.90575027 6.426156044 -6.002528191
33.91368866 6.319938183 -6.000459194
33.92322922 6.214087009 -5.998733997
33.93923187 6.109458923 -5.998217106
33.95489883 6.004792213 -5.997700214
33.9654007 5.899242878 -5.996319771
33.98334122 5.795011044 -5.996319771
34.06940079 5.380311966 -5.999423981
34.09450912 5.277120113 -6.000976086
34.11151886 5.172643185 -6.001149178
33.90969086 6.421608925 -6.208042145
33.91762924 6.315383911 -6.205904961
33.97071838 6.217495918 -6.21213913
33.95671082 6.107325077 -6.206082821
33.96849823 6.001920223 -6.204835892
33.9906311 5.898351192 -6.205548763
33.99304962 5.791398048 -6.202699184
34.00774002 5.686594009 -6.202165127
34.04251099 5.585100174 -6.205369949
34.09539032 5.271996021 -6.205904961
34.1114006 5.167367935 -6.205904961
33.91259003 6.425965786 -6.420363903
33.95524979 6.218469143 -6.42110014
33.97320175 6.114092827 -6.42091608
33.98212051 6.008123875 -6.419075966
33.99554825 5.902999878 -6.418157101
34.01641083 5.799170017 -6.418708801
34.03113174 5.694295883 -6.418157101
34.039711 5.588429928 -6.416501045
34.05281067 5.483345985 -6.415764809
34.06850052 5.378695011 -6.415581226
34.09067917 5.275050163 -6.416685104
33.98506927 6.000215054 -6.625219822
33.84552002 6.402503967 -6.831117153
33.90259933 6.305633068 -6.838746071
33.89863968 6.197358131 -6.834052086
33.89432907 6.089167118 -6.829357147
23.49003983 1.886612058 -6.552369118
23.32379913 2.368314981 -6.663974762
23.31373978 2.295053005 -6.659025192
23.33024025 2.224428892 -6.661775112
23.37504959 2.084052086 -6.670848846
23.43338966 1.944401979 -6.684047222
23.43540955 1.872194052 -6.682948112
23.26395035 2.517055988 -6.801756859
23.24793053 2.299055099 -6.790531158
23.33880043 1.947047949 -6.807651997
23.48539925 1.669348001 -6.844138145
23.52775955 1.599828005 -6.855083942
23.2117691 2.285501957 -6.916741848
23.2530098 2.217556 -6.927031994
23.24538994 2.144884109 -6.922745228
23.25811958 2.002213001 -6.922745228
23.38161087 1.940603971 -6.957904816
23.39892006 1.869776964 -6.961335182
23.44467926 1.801066041 -6.973340988
23.45199966 1.729272008 -6.973913193
23.48682976 1.659409046 -6.982773781
23.51571083 1.588961005 -6.989921093
23.49847984 1.515388966 -6.983345985
23.48068047 2.026812077 -7.13300705
40.66347122 -8.748761177 -3.638003111
40.63967133 -8.879481316 -4.143640995
40.65972137 -8.730463982 -4.413784981
35.3012619 7.804992199 -4.049282074
35.32794952 7.697287083 -4.049619198
35.42329025 7.604299068 -4.057930946
35.45714951 7.49784708 -4.059166908
35.4556694 7.383965969 -4.056358814
35.44018936 7.267370224 -4.051978111
35.40972137 7.147990227 -4.045911789
35.41004944 7.035060883 -4.043439865
35.35728836 5.903501034 -4.014570236
35.33699036 5.788733959 -4.010189056
35.40167999 5.687860012 -4.015581131
35.46706009 5.586798191 -4.021084785
35.58911133 5.494181156 -4.033104897
35.62054062 5.387197971 -4.034790993
35.65753937 5.280947208 -4.037148952
35.66176987 5.169816017 -4.035800934
35.27101898 7.688922882 -4.266524792
35.41579056 7.606742859 -4.281324863
35.40787888 7.491476059 -4.277535915
35.18962097 7.332572937 -4.248171806
35.04951096 7.19124794 -4.2283988
35.00691986 5.95938015 -4.196310997
35.01131821 5.849660873 -4.194653988
35.02616882 5.741738796 -4.194297791
35.05635834 5.636301994 -4.195837021
35.19020844 5.547123909 -4.209928036
35.46710968 5.47931385 -4.241304874
35.63396835 5.393212795 -4.259419918
35.69847107 5.290997982 -4.265223026
35.67129898 5.175179005 -4.260013103
35.36442184 7.599757195 -4.505746841
35.6157608 5.394441128 -4.486926079
35.65079117 5.28791523 -4.489294052
35.65605164 5.176946163 -4.487923145
35.43304825 7.62173605 -4.739726067
35.45336151 7.512376785 -4.739334106
35.01237106 5.530049801 -4.634644032
35.62593079 5.403101921 -4.712018013
35.67176056 5.298147202 -4.715939045
35.69961929 5.190393925 -4.717506886
35.4548912 7.61755085 -4.954987049
35.49068832 7.511407852 -4.956758976
35.64860916 5.397805214 -4.926204205
35.69244003 5.292479038 -4.930024147
35.7242012 5.185227871 -4.932206154
39.8324585 -9.46194458 -5.598965168
35.70346832 5.403732777 -5.158655167
39.8848114 -9.218840599 -5.853271008
39.86019135 -9.342065811 -5.853840828
39.80437851 -9.457904816 -5.849852085
35.67565155 5.397147179 -5.379638195
35.69692993 5.288394928 -5.380381107
35.72668839 5.180840969 -5.382460117
39.96305084 -9.239557266 -6.120800018
39.93933105 -9.363247871 -6.121542931
39.89405823 -9.481848717 -6.119019032
35.59733963 5.405118942 -5.599639893
35.67726898 5.305325985 -5.609695911
35.69728851 5.196413994 -5.610314846
40.00556946 -9.226782799 -6.390520096
39.99438858 -9.353525162 -6.393303871
39.94820023 -9.472078323 -6.390520096
