# .PCD v0.7 - Point Cloud Data file format
VERSION 0.7
FIELDS x y z
SIZE 4 4 4
TYPE F F F
COUNT 1 1 1
WIDTH 284
HEIGHT 1
VIEWPOINT 0 0 0 1 0 0 0
POINTS 284
DATA ascii
-13.03880978 -11.96947002 -6.442203045
-13.11847973 -11.96864986 -6.463530064
-12.65017986 -11.97747993 -6.443644047
-12.72439957 -11.9739399 -6.462832928
-12.78639984 -11.95853996 -6.475741863
-12.84704971 -11.94159031 -6.48795414
-12.91254044 -11.92883015 -6.502606869
-12.97115993 -11.90944004 -6.513772011
-12.18832016 -11.97546005 -6.428137779
-12.24306965 -11.95565033 -6.437698841
-12.29981995 -11.93756962 -6.448322773
-12.35859966 -11.9211998 -6.460010052
-12.56355 -11.89760971 -6.509942055
-12.6401701 -11.89682961 -6.530835152
-12.72373962 -11.90207005 -6.555270195
-12.82252979 -11.92092037 -6.58749485
-12.87347031 -11.89484978 -6.594932079
-12.01914024 -11.88395977 -6.466245174
-12.52565002 -11.86376953 -6.600998878
14.97354031 30.45614052 -6.945552826
14.79386997 31.0227108 -7.441592216
14.52875996 30.22772026 -7.260593891
14.56690979 30.07044983 -7.233368874
14.66252041 30.03264046 -7.235071182
14.62749958 30.21726036 -7.489017963
14.58551025 30.11911011 -7.673858166
14.65126991 30.24972916 -7.905412197
31.95138931 -33.36597061 -6.898643017
31.38908958 -29.32831955 -5.624951839
31.15929031 -29.83815956 -5.649130821
30.96945 -27.90312958 -5.961111069
24.65934944 -26.70278931 -6.763064861
31.96917915 -0.2882060111 -4.176412106
31.9840107 -0.3864769042 -4.17850399
32.00249863 -0.4849017859 -4.181118011
32.01276016 -0.5832989216 -4.182685852
32.02072906 -0.6817213297 -4.183992863
32.04822159 -0.7806817293 -4.187913895
32.07144165 -0.8797082901 -4.191311836
32.09634018 -0.9789451957 -4.194972038
32.13034821 -1.177356005 -4.200329781
32.14738846 -1.276751995 -4.203074932
32.16511154 -1.376306057 -4.205949783
32.17163086 -1.475481033 -4.207387924
32.17288971 -1.57446599 -4.208171844
32.18177032 -1.673884988 -4.210001945
32.19924927 -1.773864985 -4.213007927
32.21247101 -1.873736978 -4.215490818
32.23130035 -1.974071026 -4.21875906
32.25024033 -2.17393589 -4.222940922
32.2592392 -2.273983955 -4.225031853
32.26694107 -2.374034882 -4.226993084
31.93779945 -0.001701390953 -4.359295845
31.94655991 -0.09971310943 -4.360524178
31.95402908 -0.1977725029 -4.361615181
31.96615028 -0.2959245145 -4.363388062
31.96113014 -0.3939450085 -4.362843037
32.00136948 -0.4926393926 -4.368572235
32.00564957 -0.5909258127 -4.369390011
32.00468063 -0.6891363263 -4.369525909
32.05688095 -0.788662672 -4.377028942
32.08798981 -0.887940228 -4.381667137
32.10689163 -0.9870504737 -4.384667873
32.12945938 -1.086418986 -4.388215065
32.14675903 -1.185752988 -4.391078949
32.1479187 -1.284569979 -4.391760826
32.16362 -1.384045005 -4.394488811
32.18199158 -1.483764052 -4.397625923
32.18024826 -1.582635999 -4.398036003
32.19205856 -1.682235003 -4.400353909
32.19861984 -1.78164804 -4.401990891
32.21575165 -1.881752968 -4.405128956
32.22169113 -1.98131001 -4.406765938
32.23424149 -2.081368923 -4.409358025
32.23659897 -2.180854082 -4.410584927
32.24755096 -2.281002998 -4.413041115
32.2394104 -2.37985301 -4.412903786
32.23096848 -2.478674889 -4.412767887
31.93906021 -0.00387018593 -4.558343887
31.94285965 -0.1018704027 -4.558914185
31.92655945 -0.1997703016 -4.556634903
31.99803925 -0.2983916104 -4.567033768
32.02072906 -0.3968529105 -4.570453167
32.07577896 -0.4959608018 -4.578573227
32.04343033 -0.5937973857 -4.574157238
32.06420898 -0.6925938129 -4.577434063
32.08864975 -0.7916210294 -4.581280231
32.0989418 -0.8904204965 -4.58313179
32.11980057 -0.9896258116 -4.586551189
32.13935852 -1.088933945 -4.589827061
32.14377975 -1.187823057 -4.590967178
32.15977097 -1.287225008 -4.593815804
32.17346954 -1.386651039 -4.596380234
32.1720314 -1.485488057 -4.596807003
32.19895935 -1.585741043 -4.601366043
32.22161102 -1.685966015 -4.605354786
32.22518921 -1.785305023 -4.606637001
32.23733902 -1.88520205 -4.609200954
32.23931122 -1.98458302 -4.610341072
32.23701859 -2.083736897 -4.610910892
32.25418091 -2.184233904 -4.614329815
32.25028992 -2.283387899 -4.614757061
32.20363998 -2.379403114 -4.609058857
32.1971817 -2.478266954 -4.609200954
31.90442085 -0.006032680161 -4.752375126
31.89930916 -0.1038981006 -4.751632214
31.9334507 -0.2019809932 -4.756830215
31.97224045 -0.3003205955 -4.762770176
31.98007011 -0.3985191882 -4.764105797
32.04098892 -0.4975959957 -4.773460865
32.04129028 -0.5959306955 -4.773757935
32.06007004 -0.6946783066 -4.776876926
32.07954025 -0.7935711741 -4.780144215
32.1006813 -0.8926450014 -4.783708096
32.10766983 -0.9914292097 -4.785192966
32.12226868 -1.090533018 -4.787866116
32.12767029 -1.189406037 -4.789203167
32.1357193 -1.288442016 -4.790985107
32.15927887 -1.388219953 -4.795143127
32.17264938 -1.487697959 -4.797814846
32.19163895 -1.587563992 -4.801380157
32.20439911 -1.687250018 -4.804051876
32.21981049 -1.787192941 -4.807170868
32.23292923 -1.887130976 -4.809991837
32.22402954 -1.985828996 -4.809546947
32.21976089 -2.084809065 -4.809844017
32.23688889 -2.185251951 -4.813407898
32.22608948 -2.283864021 -4.812814236
32.19919968 -2.381263018 -4.809844017
32.17301178 -2.478595018 -4.807023048
31.8488903 -0.08613126725 -4.948772907
31.8316803 -0.1837442964 -4.94614315
31.95841026 -0.28253299 -4.96610117
31.94257927 -0.3804017007 -4.963779926
32.0074501 -0.4793919921 -4.974145889
32.03052139 -0.5780336857 -4.978013992
32.04241943 -0.6765918136 -4.980179787
32.06489182 -0.7754914165 -4.984046936
32.08111954 -0.8743736148 -4.986987114
32.09704971 -0.9733626246 -4.989925861
32.12255096 -1.072788 -4.994412899
32.10923004 -1.170972943 -4.992866039
32.10845184 -1.269593954 -4.993330002
32.13203812 -1.36927402 -4.997662067
32.14249039 -1.468525052 -4.99998188
32.1506691 -1.567754984 -5.001994133
32.16543961 -1.667408943 -5.005087852
32.17694092 -1.767004013 -5.007718086
32.19108963 -1.866858006 -5.010811806
32.20000839 -1.966513991 -5.013133049
32.1810112 -2.064471006 -5.011122227
32.21099091 -2.16564393 -5.01684618
32.19433975 -2.263762951 -5.015298843
32.20497894 -2.363825083 -5.018084049
32.13354874 -2.457717896 -5.00802803
31.78319931 -0.001691272948 -5.120397091
31.88866043 -0.0995317027 -5.137540817
31.91189957 -0.1975111961 -5.141386032
31.91904068 -0.2954877913 -5.14266777
31.94067955 -0.3936927021 -5.146352768
31.97781944 -0.4922764897 -5.152602196
32.00774002 -0.5909641981 -5.157729149
32.01958847 -0.6894574165 -5.159972191
32.04100037 -0.7882717848 -5.163817883
32.05817032 -0.8871148229 -5.167022228
32.07009888 -0.9859188795 -5.169425011
32.06988144 -1.084403992 -5.169906139
32.08712006 -1.183552027 -5.173271179
32.13364029 -1.283998966 -5.181443214
32.09996033 -1.381304026 -5.176636219
32.10739899 -1.480324984 -5.178557873
32.1283493 -1.580083013 -5.182723999
32.14109039 -1.679571033 -5.18560791
32.15056992 -1.778988957 -5.188012123
32.15974045 -1.87848103 -5.190414906
32.15579987 -1.977257967 -5.190735817
32.15449905 -2.076219082 -5.191536903
32.15882111 -2.175590992 -5.193298817
32.16479111 -2.275147915 -5.195382118
32.08821869 -2.467695951 -5.185287952
31.75193024 -0.1012637988 -5.314520836
31.82641029 -0.1991448998 -5.327157021
31.85326004 -0.2970432043 -5.331810951
31.89361 -0.3952789903 -5.338794231
31.92379951 -0.4936127961 -5.344113827
31.95368958 -0.592135489 -5.349433899
31.97735023 -0.6907187104 -5.353756905
31.99776077 -0.7893795967 -5.357581139
32.02770996 -0.8884456158 -5.36306715
32.03863144 -0.9871259928 -5.365395069
32.04235077 -1.085647941 -5.366559029
32.05661011 -1.184602976 -5.369551182
32.06858826 -1.283576012 -5.372210979
32.09011078 -1.383059025 -5.376533985
32.10049057 -1.48218596 -5.37902689
32.11943054 -1.581825018 -5.383018017
32.12919998 -1.681131959 -5.385510921
32.12192154 -1.779585958 -5.385179043
32.11631012 -1.878126025 -5.385179043
32.11827087 -1.977133036 -5.386507988
32.102211 -2.075026035 -5.38484621
32.09471893 -2.173437119 -5.384679794
32.03969955 -2.268480062 -5.376533985
31.99914932 -2.364295959 -5.370881081
32.00067139 -1.173529029 -5.567104816
32.0520401 -1.273888946 -5.576762199
32.08636093 -1.373859048 -5.583487034
32.08987045 -1.472653031 -5.584867001
32.05175018 -1.569460034 -5.579003811
32.07432175 -1.669217944 -5.583831787
32.04249954 -1.766149998 -5.579175949
32.0526619 -1.865362048 -5.581934929
32.31563187 -0.9912843108 -5.813160896
32.36259079 -1.092116952 -5.822245121
32.51052094 -1.19698 -5.849674225
32.46736908 -1.295145035 -5.842549801
32.44652939 -1.394029021 -5.839521885
32.59658051 -1.600916028 -5.868375778
32.60528183 -1.701632023 -5.870870113
32.34262848 -0.09531200677 -6.013648033
32.38936996 -0.1948217005 -6.02247715
32.44266891 -0.2946816087 -6.032595158
32.460289 -0.3944401145 -6.036089897
32.43338013 -0.4936358035 -6.03130722
32.49755096 -0.5943427086 -6.04363203
32.56026077 -1.095304966 -6.057796001
32.55772018 -1.195229053 -6.057980061
32.58533096 -1.296360016 -6.063867092
32.58808136 -1.396618962 -6.065154076
32.60033035 -1.497357965 -6.068281174
32.60147095 -1.597656012 -6.069385052
32.54734039 -1.69511199 -6.060186863
32.61679077 -1.899474025 -6.075272083
32.66281128 -2.002721071 -6.085021019
32.64963913 -2.102477074 -6.083733082
32.61656189 -2.200848103 -6.078765869
32.57434082 -2.499370098 -6.074903011
32.47119904 -0.1035490036 -6.231400967
32.44813919 -0.2030276954 -6.227039814
32.44932938 -0.3025945127 -6.2274189
32.51876831 -1.001912951 -6.243535995
32.51554108 -1.101675034 -6.243535995
32.58166885 -1.203999043 -6.256999016
32.57194138 -1.303717017 -6.255860806
32.49322891 -1.400428057 -6.241449833
32.66141129 -1.508077979 -6.274822235
32.64485931 -1.607694983 -6.272545815
32.6482811 -1.90922904 -6.276339054
32.65206909 -2.009985924 -6.278234005
32.64281082 -2.109961987 -6.277666092
32.63325119 -2.209899902 -6.277097225
32.65570068 -2.312087059 -6.282784939
32.40105057 -0.006108522881 -6.4232831
32.38911057 -0.1054755971 -6.420936108
32.39255905 -0.2048681974 -6.421719074
32.44657898 -0.4043157995 -6.432868004
32.38270187 -0.602268219 -6.420741081
32.58734131 -2.008204937 -6.472771168
32.58787918 -2.108616114 -6.474140167
32.51514053 -2.091614008 -6.666552067
26.47286034 17.9198494 -7.717411995
41.65274048 -0.009604250081 -3.643196106
41.6465416 -0.1373731941 -3.642668009
41.65488052 -0.2651995122 -3.643460035
40.63230896 -8.742056847 -3.635185957
40.62535095 -8.858852386 -3.900115013
39.48506165 -0.01407906041 -3.931210995
39.66564941 -0.8661242723 -3.950314045
39.66082001 -0.987763226 -3.950114012
39.67052841 -1.109797955 -3.951414108
40.66007996 -8.883940697 -4.14574194
40.79721069 -8.6291399 -4.425918102
40.76562881 -8.77074337 -4.676116943
35.64429855 -0.5510948896 -4.212769985
35.59280014 -0.6595283151 -4.206849098
40.7580986 -8.764336586 -4.933138847
39.88835907 -9.475223541 -5.606875896
39.89776993 -9.350873947 -5.859396935
39.85638046 -9.47026062 -5.857544899
39.95631027 -9.237998009 -6.11976099
39.90948105 -9.356250763 -6.116940022
39.88539886 -9.479790688 -6.11768198
39.96455002 -9.475954056 -6.393148899
40.03364182 -9.509736061 -6.640458107
