# .PCD v0.7 - Point Cloud Data file format
VERSION 0.7
FIELDS x y z
SIZE 4 4 4
TYPE F F F
COUNT 1 1 1
WIDTH 237
HEIGHT 1
VIEWPOINT 0 0 0 1 0 0 0
POINTS 237
DATA ascii
14.96619034 30.44120026 -6.942125797
14.57884026 30.09506989 -7.239325047
14.63778973 30.47661018 -7.542411804
14.63599968 30.23481941 -7.493394852
14.68041039 30.07946968 -7.675206184
14.70598984 30.36272049 -7.935088158
14.65264034 30.01749039 -7.856181145
24.42980957 -36.56626892 -6.016915798
24.49366951 -38.16445923 -6.205841064
24.48883057 -38.41567993 -6.234622002
24.4148407 -38.56010056 -6.245944023
25.59742928 -35.42311096 -6.251578808
25.45977974 -35.46126938 -6.244455814
24.45606995 -36.12852097 -6.240610123
24.41691971 -36.31015015 -6.259129047
24.41097069 -36.54291916 -6.28647995
24.36660957 -36.71990967 -6.304144859
24.33555031 -36.9184494 -6.325512886
24.34687996 -37.1833992 -6.358277798
24.40160942 -37.51762009 -6.40286684
24.36158943 -37.70869827 -6.422811031
24.8803997 -35.34093094 -6.451657772
24.74975014 -35.38549042 -6.445867062
24.65236092 -35.47750092 -6.448836803
24.41407967 -35.59873962 -6.443490982
24.35482979 -35.98373032 -6.486258984
24.31605911 -36.16495895 -6.505564213
24.35438919 -36.46306992 -6.545956135
24.34902954 -36.69829941 -6.574913025
24.95029068 -35.1704216 -6.714018822
24.80868912 -35.19915009 -6.704891205
24.70399094 -35.27994919 -6.70581913
24.59056091 -35.34828186 -6.704426765
24.47019958 -35.40649033 -6.701178074
23.9943409 -30.73534966 -6.787324905
31.30072975 -29.60757065 -5.641681194
31.22769928 -29.72055054 -5.644948959
30.98122025 -27.91373062 -5.963389874
27.41382027 -27.91385078 -6.810431957
24.54071045 -26.90958023 -6.553229809
24.7473793 -26.79810905 -6.78734684
24.64112091 -26.84782982 -6.780725002
24.17407036 -26.99662018 -6.742647171
24.05192947 -27.02659988 -6.731609821
24.46578979 -26.83441925 -6.973342896
24.35170937 -26.8744297 -6.964241982
34.93891907 7.068023205 -4.661045074
34.92737961 6.954216957 -4.656600952
34.93980026 6.845313072 -4.655425072
34.95285034 6.736587048 -4.654378891
34.95775986 6.626367092 -4.65228796
34.98279953 6.519995213 -4.652942181
34.97436142 6.407458782 -4.649150848
34.98213959 6.29802084 -4.647583008
34.99446869 6.189458847 -4.646667957
34.71250916 7.235523224 -4.844087124
34.77664185 7.026515007 -4.846951962
34.8009491 6.920368195 -4.847361088
34.77827072 6.805007935 -4.841222763
34.85150909 6.708387852 -4.848588943
34.86219025 6.599590778 -4.847225189
34.87059021 6.490428925 -4.845588207
34.80458069 6.367729187 -4.833583832
34.88441086 6.27178812 -4.842041016
34.89567947 6.163355827 -4.840950012
34.90758896 6.055082798 -4.839994907
34.92210007 5.947295189 -4.839448929
34.94018173 5.840126991 -4.839448929
34.95402908 5.732264042 -4.838903904
34.96949005 5.624684811 -4.838631153
34.93299103 5.836573124 -5.058936119
34.8569603 5.714000225 -5.045258999
34.93830109 5.507411957 -5.052097797
34.93252945 5.396720886 -5.048820972
34.54027939 6.319375992 -5.660997868
34.58813095 6.109037876 -5.662600994
34.59090042 5.89089489 -5.656991959
34.6322403 5.679496765 -5.657954216
34.7142601 5.365334034 -5.663081169
34.3569603 7.159060955 -5.878117085
34.37876892 7.053621769 -5.878117085
34.39638138 6.947334766 -5.877451897
34.41075897 6.840429783 -5.876287937
34.47756958 6.414937019 -5.873795033
34.50096893 6.309840202 -5.87446022
34.49686813 6.199777126 -5.870470047
34.52156067 6.094941139 -5.871467113
34.54008865 5.989002228 -5.871467113
34.55149841 5.881847858 -5.870303154
34.54312897 5.771430016 -5.865815163
34.56164169 5.665585041 -5.865981102
34.56620026 5.557489872 -5.863820076
34.5899086 5.452490807 -5.864983082
34.61914062 5.348301888 -5.867145061
34.6558609 5.245165825 -5.870635986
34.35063171 7.167891979 -6.104269981
34.39368057 7.066834927 -6.108065128
34.37852097 6.953861237 -6.101511002
34.39389038 6.847201824 -6.100477219
34.38959885 6.736727238 -6.095993996
34.3965683 6.628580093 -6.093578815
34.41093826 6.521920204 -6.092545033
34.4394989 6.417943001 -6.094097137
34.44739914 6.310122967 -6.092027187
34.46659851 6.20441103 -6.092027187
34.47092056 6.096065998 -6.089439869
34.49140167 5.990619183 -6.089785099
34.49407959 5.882122993 -6.087026119
34.48476028 5.771715164 -6.082198143
34.54507828 5.672914982 -6.089785099
34.54286957 5.563772202 -6.08633709
34.63282013 5.360456944 -6.096337795
34.63351822 5.251815796 -6.093578815
34.39262009 7.171206951 -6.320254803
34.43072128 6.739356041 -6.311526775
34.40967941 6.625692844 -6.303867817
34.43952179 6.521924973 -6.305648804
34.45162964 6.414794922 -6.304224014
34.45275116 6.305703163 -6.300839901
34.47967911 6.201366901 -6.302265167
34.48498154 6.093159199 -6.299771786
34.56264877 5.997592926 -6.310636997
34.67692947 5.907886028 -6.328269958
34.69044113 5.473010063 -6.317938805
34.59133911 5.348665237 -6.29674387
34.64260864 5.247819901 -6.303155899
34.42171097 7.181178093 -6.54140377
34.41950989 7.070594788 -6.536805153
34.49066925 6.425946236 -6.526688099
34.45898056 6.310716152 -6.516939163
34.65522003 6.236824989 -6.550601006
34.72935867 6.140229225 -6.561087132
34.71897888 6.028607845 -6.555568218
34.48958969 7.186697006 -6.764204025
34.48537064 6.416388035 -6.734624863
34.4981308 6.30932188 -6.733297825
23.97178078 3.115221977 -6.72237587
23.85473061 2.951292038 -6.68411684
23.8302002 2.874058008 -6.674686909
23.84177971 2.801271915 -6.675496101
23.83016968 2.725816011 -6.669837952
23.80048943 2.574575901 -6.656906128
23.76011086 2.70758009 -6.798432827
23.75779915 2.633507013 -6.795409203
23.86795044 2.05420208 -6.810532093
23.97378922 1.989233017 -6.839128017
24.02865982 1.919577003 -6.853150845
23.70541 2.638432026 -6.933950901
23.71434975 2.565794945 -6.934232235
23.72019958 2.492827892 -6.933670998
23.7191391 2.419167042 -6.931145191
23.84107018 2.357722998 -6.964825153
23.87207985 2.28685689 -6.971840858
23.89044952 2.214670897 -6.97521019
23.92198944 2.143594027 -6.982507229
23.95331955 2.072343111 -6.989803791
23.97104073 1.99980402 -6.993172169
23.94931984 1.924023032 -6.985033035
23.83736992 2.347131968 -7.104262829
40.56504059 -8.845702171 -3.89426899
40.60467911 -8.871836662 -4.140040874
35.82807922 7.476984978 -3.880000114
35.80784988 7.015348911 -3.868078947
35.99539948 6.480409145 -3.877232075
36.18712997 5.48819685 -3.880105972
36.21166992 5.378318787 -3.88095808
36.22996902 5.267484188 -3.881170988
40.73944092 -8.747583389 -4.422513008
35.9236412 7.711700916 -4.115785122
35.92573929 7.596930027 -4.113313198
35.90996933 7.478571892 -4.108819962
35.72053909 7.324854851 -4.084331036
35.65322876 7.197143078 -4.073996067
35.64883041 7.082499027 -4.070961952
35.62937927 6.399300098 -4.054449081
35.65081024 6.290306091 -4.054674149
35.63957977 6.175642014 -4.051190853
35.61819839 6.059440136 -4.046586037
35.67485046 5.956518173 -4.050967216
35.70177841 5.8484869 -4.051978111
35.71955109 5.738927841 -4.051978111
35.89305878 5.653896809 -4.069839001
36.16287994 5.469213963 -4.09679985
36.16965866 5.356787205 -4.095675945
36.20951843 5.24921608 -4.098371983
40.75979996 -8.769489288 -4.675443172
35.88470078 7.707461834 -4.338513851
35.89068985 7.593633175 -4.336382866
35.38631821 6.471770763 -4.251486778
35.39818954 6.36177206 -4.25053978
35.43709946 6.256595135 -4.25290823
35.39448929 6.137156963 -4.245449066
35.41119003 6.028205872 -4.245212078
35.44421005 5.921992779 -4.24698782
35.4906311 5.817882061 -4.250422001
35.52890015 5.712282181 -4.25290823
35.63454056 5.617169857 -4.263565063
35.90674973 5.547237873 -4.294350147
36.11013031 5.465285778 -4.316845894
36.14440918 5.357097149 -4.318977833
36.18130875 5.249176979 -4.321464062
35.88339996 7.71130085 -4.572430134
35.96707153 7.613917828 -4.580156803
35.21504974 5.998767853 -4.44928503
35.26264191 5.895610809 -4.453023911
35.26293945 5.784508228 -4.450779915
35.3187294 5.682444096 -4.455640793
35.49769974 5.599575043 -4.476206779
36.06604004 5.462656021 -4.544136047
36.17390823 5.365522861 -4.555727005
36.19020081 5.254518032 -4.555727005
35.95645142 7.734302998 -4.810304165
35.97515869 7.622927189 -4.809649944
35.9993515 7.512722969 -4.809781075
36.20426178 5.490794182 -4.789130211
36.23271179 5.381443024 -4.790699005
36.23334885 5.267974854 -4.788608074
35.99533844 7.733663082 -5.03110218
35.99369812 7.617860794 -5.027554989
36.21279907 5.483225822 -5.004775047
36.22161102 5.370937824 -5.003684044
36.24673843 5.261066914 -5.004910946
39.78041077 -9.449581146 -5.591598988
39.76665115 -9.575291634 -5.593780994
36.17322159 5.474834919 -5.227034092
36.1986618 5.365138054 -5.22831583
39.87612915 -9.216835022 -5.851988792
39.86500931 -9.343194962 -5.854553223
39.81978989 -9.461565971 -5.85213089
36.00711823 5.447303772 -5.429978848
36.1674614 5.358119011 -5.451808929
36.20135117 5.249688148 -5.454482079
39.96208954 -9.23933506 -6.120652199
39.93355942 -9.361893654 -6.120652199
39.90945816 -9.485507011 -6.121395111
39.99728012 -9.354199409 -6.393767834
39.96743011 -9.47663784 -6.393613815
