# .PCD v0.7 - Point Cloud Data file format
VERSION 0.7
FIELDS x y z
SIZE 4 4 4
TYPE F F F
COUNT 1 1 1
WIDTH 357
HEIGHT 1
VIEWPOINT 0 0 0 1 0 0 0
POINTS 357
DATA ascii
10.53444958 -18.20516014 -5.974635124
10.46321964 -18.21072006 -5.965836048
10.37967014 -18.1942997 -5.949888229
10.31575012 -18.21183014 -5.945212841
10.25323009 -18.23166084 -5.941363811
10.16396999 -18.20343018 -5.921841145
10.07730961 -18.17902946 -5.903693199
10.01037025 -18.18964958 -5.897093773
10.53454971 -18.18675041 -6.10514307
10.41219044 -18.10334015 -6.066130161
10.33327007 -18.09436035 -6.052377224
10.21759033 -18.01993942 -6.01673317
10.08833027 -17.91990089 -5.972668171
10.08434963 -18.04207993 -6.003261089
10.2211504 -17.91591072 -6.112058163
10.01875973 -17.68704987 -6.022871017
8.982424736 -17.8466301 -5.919106007
8.901079178 -17.82094955 -5.901381969
8.834871292 -17.82500076 -5.893663883
8.807637215 -17.90790939 -5.912244797
8.769888878 -17.97015953 -5.923964977
8.710538864 -17.98834991 -5.921106815
8.640368462 -17.98390007 -5.910816193
10.04234982 -17.59251976 -6.125153065
9.899188995 -17.46594048 -6.070115089
9.772377014 -17.36615944 -6.024686813
9.680329323 -17.32674026 -6.000516891
9.603926659 -17.31452942 -5.985958099
9.559528351 -17.35983086 -5.991489887
8.954380989 -17.37985992 -5.910243988
8.915389061 -17.43535995 -5.919854164
8.880037308 -17.49846077 -5.932085037
8.794471741 -17.4623909 -5.910535812
8.736152649 -17.47987938 -5.907331944
8.688858986 -17.51944923 -5.911701202
8.645628929 -17.56748962 -5.918981075
8.608901024 -17.62918091 -5.930920124
8.525995255 -17.59609985 -5.91082716
8.488549232 -17.65666008 -5.922474861
8.438869476 -17.6921196 -5.925677776
8.409509659 -17.77067947 -5.943441868
8.376494408 -17.84229088 -5.958876133
8.313235283 -17.84970093 -5.95276022
8.308581352 -17.98368073 -5.989161015
9.838306427 -17.36183929 -6.162922859
9.602137566 -17.1901207 -6.08039093
8.962389946 -17.13978958 -5.97203207
8.607397079 -17.22583008 -5.945611
8.576142311 -17.29578972 -5.960751057
8.510814667 -17.29717064 -5.952141762
8.460221291 -17.32835007 -5.953923225
8.402022362 -17.34391022 -5.950359821
8.361183167 -17.39542007 -5.959267139
8.331203461 -17.47013092 -5.976189137
8.14748764 -17.49758911 -5.959564209
8.11779213 -17.57451057 -5.977375984
9.557332039 -17.09922981 -6.169023991
9.301358223 -16.88369942 -6.06990099
9.151627541 -16.73317909 -6.005228996
9.0938797 -16.74945068 -6.00099802
9.019836426 -16.73531914 -5.985888004
8.966202736 -16.75871086 -5.984376907
8.914745331 -16.78614044 -5.984376907
8.861426353 -16.81003952 -5.983169079
8.811138153 -16.83967972 -5.984075069
8.761190414 -16.87001038 -5.985283852
8.712013245 -16.90189934 -5.987096786
8.663157463 -16.9344902 -5.98921299
8.623245239 -16.98477936 -5.997673988
8.584394455 -17.03754997 -6.007041931
8.547430038 -17.09449959 -6.017921925
8.498334885 -17.12747002 -6.020339012
8.445326805 -17.15261078 -6.020037174
8.397267342 -17.18786049 -6.02336216
8.356139183 -17.23756027 -6.031823158
8.301976204 -17.26054001 -6.030917168
8.262120247 -17.3134594 -6.040586948
8.21141243 -17.34388924 -6.042399883
8.166674614 -17.38711929 -6.048747063
8.119734764 -17.42592049 -6.053582191
8.073034286 -17.46545982 -6.058719158
8.025770187 -17.50400925 -6.063554764
7.986238003 -17.55978012 -6.074433804
9.965784073 -17.46128082 -6.452485085
9.382430077 -16.91819954 -6.207214832
9.223073959 -16.75185013 -6.135293007
9.10636425 -16.66066933 -6.091341019
9.05339241 -16.68518066 -6.090112209
9.000805855 -16.71035957 -6.089190006
8.95039463 -16.73958015 -6.089804173
8.899888039 -16.76864052 -6.090418816
8.851506233 -16.80175972 -6.092570782
8.798152924 -16.82546043 -6.091341019
8.751752853 -16.86251068 -6.095028877
8.708694458 -16.90620041 -6.101177216
8.665884018 -16.95063019 -6.107631207
8.574126244 -17.02812958 -6.11654377
8.533329964 -17.07733917 -6.124843121
8.484703064 -17.11111069 -6.127608776
8.389572144 -17.18337059 -6.134985924
8.343869209 -17.22359085 -6.140211105
8.24622345 -17.29163933 -6.146358013
8.203310013 -17.33835983 -6.154041767
8.157357216 -17.37895012 -6.159574986
8.120471954 -17.43926048 -6.172175884
8.066132545 -17.46236992 -6.171560764
8.016089439 -17.49481964 -6.174326897
7.973403931 -17.5435791 -6.182932854
7.917197227 -17.5627594 -6.181088924
9.150817871 -16.61067009 -6.208505154
9.098902702 -16.63699913 -6.207879066
9.046458244 -16.66233063 -6.206940174
8.941810608 -16.71334076 -6.205375195
8.900736809 -16.75997925 -6.212574005
8.849275589 -16.78721046 -6.212574005
8.801254272 -16.82101059 -6.215077877
8.750043869 -16.84877968 -6.215391159
8.703097343 -16.88483047 -6.218833923
8.659038544 -16.92667007 -6.224468231
8.611797333 -16.9624691 -6.227910995
8.563989639 -16.99729919 -6.231040001
8.516049385 -17.03199005 -6.23416996
8.470087051 -17.07080078 -6.238864899
8.425644875 -17.11289024 -6.244812012
8.374771118 -17.14207077 -6.24606514
8.335395813 -17.19503975 -6.256081104
8.288777351 -17.23336983 -6.260776043
8.243638039 -17.27499962 -6.266722202
8.191819191 -17.30278969 -6.267662048
8.147981644 -17.34761047 -6.274859905
8.111566544 -17.40867996 -6.288005829
8.053339005 -17.42313957 -6.284249783
8.016469955 -17.48402977 -6.297396183
7.973800182 -17.53274918 -6.306159973
9.384163857 -16.79986954 -6.419592857
9.296718597 -16.76391983 -6.394765854
9.141002655 -16.60301971 -6.322194099
9.093205452 -16.6368103 -6.324421883
9.044382095 -16.66879082 -6.326014042
8.954001427 -16.74654961 -6.334608078
8.901693344 -16.77226067 -6.333971024
8.847985268 -16.79529953 -6.332378864
8.802566528 -16.83412933 -6.336834908
8.502230644 -17.01535034 -6.345110893
8.45630455 -17.0540905 -6.349885941
8.407292366 -17.08675957 -6.352431774
8.363980293 -17.13121986 -6.359435081
8.326674461 -17.18836021 -6.371212006
8.272259712 -17.21040916 -6.369937897
8.226764679 -17.25111008 -6.375668049
8.11085701 -17.41890907 -6.410044193
8.052607536 -17.43338966 -6.406223774
8.006193161 -17.47352028 -6.411953926
7.959608078 -17.51354027 -6.417683125
7.912850857 -17.55343056 -6.423411846
9.331630707 -16.7091198 -6.492272854
9.260590553 -16.70208931 -6.478380203
9.201546669 -16.71632004 -6.472887993
9.143410683 -16.73201942 -6.468040943
9.035625458 -16.65600967 -6.42765522
9.012752533 -16.73615074 -6.448009014
8.849955559 -16.8024807 -6.441871166
8.799241066 -16.83123016 -6.442516804
8.694934845 -16.88322067 -6.441871166
8.649988174 -16.92329979 -6.447041035
8.593746185 -16.94132042 -6.443809986
8.549390793 -16.98282051 -6.449625015
8.50316906 -17.02082062 -6.454147816
8.460577965 -17.06632996 -6.461578846
8.411521912 -17.09900093 -6.46416378
8.368156433 -17.14343071 -6.471271992
8.322948456 -17.1843605 -6.477087975
8.28781414 -17.24649048 -6.490981102
8.218571663 -17.2376709 -6.478056908
8.180216789 -17.29360008 -6.48968792
8.141998291 -17.35030937 -6.501643181
8.111897469 -17.42497063 -6.520381927
8.062764168 -17.45922089 -6.523935795
8.004826546 -17.4744091 -6.520381927
7.957441807 -17.51268005 -6.525551796
9.310265541 -16.66050911 -6.593389034
9.233902931 -16.64356995 -6.575327873
9.126620293 -16.69079971 -6.571715832
9.044725418 -16.66227913 -6.549386978
9.002526283 -16.70657921 -6.555953979
8.948109627 -16.72829056 -6.553656101
8.840453148 -16.77368927 -6.55004406
8.786761284 -16.79655075 -6.548401833
8.739542007 -16.83181 -6.551684856
8.685265541 -16.85350037 -6.549715042
8.635669708 -16.88426971 -6.551356792
8.585111618 -16.91320992 -6.552341938
8.556131363 -16.98502922 -6.570074081
8.506516457 -17.01626015 -6.572043896
8.458049774 -17.04990005 -6.574999809
8.411541939 -17.08762932 -6.579596996
8.361566544 -17.11845016 -6.581566811
8.31642437 -17.15932083 -6.587478161
8.272747993 -17.20347977 -6.594701767
8.230505943 -17.25094032 -6.603240013
8.187241554 -17.29660034 -6.611121178
8.141768456 -17.33787918 -6.617360115
8.096515656 -17.37989998 -6.623927116
8.049893379 -17.41924095 -6.629508972
8.008617401 -17.47047043 -6.639688969
7.964365005 -17.51559067 -6.647570133
7.912920952 -17.5451107 -6.649539948
9.365818977 -16.64357948 -6.721137047
9.226488113 -16.63396072 -6.694097996
9.171319962 -16.65476036 -6.691093922
9.122441292 -16.68696022 -6.692762852
9.038384438 -16.6543808 -6.668395996
8.980542183 -16.66958046 -6.663387775
8.929357529 -16.69705963 -6.663387775
8.877648354 -16.72353935 -6.663053989
8.827617645 -16.75320053 -6.664055824
8.781419754 -16.7902298 -6.66806221
8.734209061 -16.82546043 -6.67140007
8.689455032 -16.86557961 -6.676741123
8.642391205 -16.90139008 -6.680412769
8.594763756 -16.93623924 -6.683751106
8.545730591 -16.96842003 -6.686087132
8.496582031 -17.00045967 -6.68842411
8.448991776 -17.03573036 -6.692096233
8.399600029 -17.06749916 -6.694431782
8.349266052 -17.09741974 -6.696102142
8.305403709 -17.14076996 -6.703112125
8.258086205 -17.17721939 -6.707450867
8.217116356 -17.22714043 -6.717131138
8.174707413 -17.27442932 -6.725811005
8.135690689 -17.32929039 -6.737493992
8.086864471 -17.36356926 -6.741166115
8.045809746 -17.41482925 -6.751513004
7.997840881 -17.45142937 -6.756186962
7.916180134 -17.55689049 -6.778217793
9.284353256 -16.62117958 -6.816147804
9.225103378 -16.63478088 -6.810048103
9.141356468 -16.60366058 -6.785646915
9.09849453 -16.6464901 -6.791747093
9.019115448 -16.62221909 -6.770396233
8.991722107 -16.69371986 -6.788358212
8.938245773 -16.71707916 -6.786664009
8.897501945 -16.76436043 -6.794796944
8.844273567 -16.78824997 -6.793440819
8.802316666 -16.83365059 -6.800897121
8.753231049 -16.86558914 -6.802930832
8.703169823 -16.89570999 -6.804286003
8.654719353 -16.92902946 -6.806997776
8.612957001 -16.97563934 -6.815131187
8.496019363 -17.00292015 -6.804964066
8.461368561 -17.06431007 -6.819198132
8.360219002 -17.12351036 -6.822247982
8.202263832 -17.19972992 -6.822247982
8.078959465 -17.35040092 -6.85240984
8.045414925 -17.41781044 -6.869356155
7.998601913 -17.45694923 -6.875116825
7.949677944 -17.49168968 -6.879183769
9.268546104 -16.58937073 -6.919658184
9.146651268 -16.6097393 -6.904521942
9.095649719 -16.63772964 -6.904521942
9.036053658 -16.64986992 -6.897985935
8.986266136 -16.68000031 -6.899017811
8.940806389 -16.71825027 -6.903490067
8.897398949 -16.76053047 -6.909681797
8.843310356 -16.78277016 -6.907618046
8.792650223 -16.81147957 -6.908306122
8.742762566 -16.84170914 -6.909681797
8.69449234 -16.8751297 -6.912434101
8.640541077 -16.89755058 -6.910714149
8.593334198 -16.93318939 -6.914497852
8.549368858 -16.97540092 -6.921032906
8.452140808 -17.0418396 -6.926880836
8.398988724 -17.06600952 -6.926193237
8.363897324 -17.12713051 -6.940640926
8.312541008 -17.15525055 -6.941672802
8.272890091 -17.20775032 -6.952681065
8.227739334 -17.24914932 -6.959216118
8.186027527 -17.29808044 -6.968848228
8.142896652 -17.34436035 -6.977447987
8.046560287 -17.41616058 -6.986391068
8.000131607 -17.45612907 -6.992582798
9.122326851 -16.56204987 -6.997346878
9.070572853 -16.58831978 -6.996648788
9.032157898 -16.63912964 -7.006418228
8.980622292 -16.66593933 -7.006069183
8.931659698 -16.69754028 -7.007812977
8.881269455 -16.72652054 -7.00851202
8.834281921 -16.76198006 -7.012001038
8.783249855 -16.78982925 -7.012349129
8.736880302 -16.82667923 -7.016536236
8.690368652 -16.86339951 -7.020722866
8.64200592 -16.89665985 -7.023513794
8.593096733 -16.92893982 -7.025956154
8.546600342 -16.96611023 -7.030491829
8.453166962 -17.04006004 -7.039564133
8.407058716 -17.07851982 -7.044796944
8.360793114 -17.11687088 -7.050030231
8.313962936 -17.15423965 -7.054914951
8.269824982 -17.19739914 -7.062242031
8.223079681 -17.23538017 -7.067474842
8.178985596 -17.27915955 -7.075150967
8.137488365 -17.32876968 -7.085268974
8.087848663 -17.36129951 -7.088408947
8.042410851 -17.40304947 -7.095386982
8.97911644 -16.65998077 -7.124352932
8.928844452 -16.68910027 -7.125061989
8.880670547 -16.72219086 -7.127541065
8.830634117 -16.75184059 -7.128602982
8.781366348 -16.78300095 -7.130373001
8.736300468 -16.82230949 -7.135684967
8.682078362 -16.84404945 -7.133561134
8.63419342 -16.87809944 -7.136747837
8.582371712 -16.9045105 -7.136747837
8.534255981 -16.93827057 -7.139935017
8.444709778 -17.01963997 -7.152328968
8.396998405 -17.05470085 -7.156225204
8.350792885 -17.09299088 -7.16153717
10.63494968 27.81962013 -7.739818096
10.87277031 27.44454956 -8.035220146
14.96144009 30.43153 -6.939908981
14.55881023 30.05373955 -7.229329109
14.67553997 30.31649971 -7.513745785
34.48168182 -44.18408966 -7.002421856
34.41893005 -44.38375854 -7.017378807
31.29174042 -29.41769028 -5.623644829
31.28993034 -29.59734917 -5.639720917
31.27654076 -29.76703072 -5.653835773
31.19150925 -29.86902046 -5.655013084
31.12542915 -29.98933983 -5.659718037
30.97238922 -27.90578079 -5.961679935
24.29762077 -29.24231911 -6.132702827
24.2052803 -29.31369019 -6.132061958
24.45256042 -29.06789017 -6.365403175
24.36389923 -29.14352989 -6.365570068
24.81940079 -26.8760891 -6.807213783
24.18522072 -27.00905991 -6.745773792
24.47373009 -26.84313011 -6.975618839
24.35961914 -26.88315964 -6.966516972
40.64746857 -8.733128548 -3.899642944
40.6282692 -8.859487534 -3.900398016
40.64258957 -8.88011837 -4.143940926
40.74662018 -8.618439674 -4.420382977
40.71707916 -8.742781639 -4.420063972
40.71609116 -8.760083199 -4.670388222
39.80728912 -9.327039719 -5.591326237
39.77560043 -9.448435783 -5.59091711
39.74930954 -9.571117401 -5.591326237
39.85972977 -9.213046074 -5.849566936
39.84381104 -9.338226318 -5.851418972
39.78992844 -9.454472542 -5.847714901
39.9524498 -9.237107277 -6.119166851
39.91910934 -9.35850811 -6.118423939
39.89984131 -9.4832201 -6.119909763
40.00556946 -9.226782799 -6.390520096
39.97803879 -9.349699974 -6.390674114
39.95109177 -9.472762108 -6.390984058
40.00194931 -9.502207756 -6.635170937
