# .PCD v0.7 - Point Cloud Data file format
VERSION 0.7
FIELDS x y z
SIZE 4 4 4
TYPE F F F
COUNT 1 1 1
WIDTH 232
HEIGHT 1
VIEWPOINT 0 0 0 1 0 0 0
POINTS 232
DATA ascii
11.40645981 -23.00989914 -5.879889965
11.34313011 -23.05964088 -5.883708954
11.31890965 -23.18979073 -5.908192158
11.28423977 -23.29982948 -5.927507877
11.2169199 -23.34313011 -5.92975378
10.93237972 -22.57751083 -5.889945984
12.05475998 -21.43894005 -5.928475857
11.93066025 -21.37145996 -5.899469852
11.86079979 -21.40031052 -5.897347927
11.78666019 -21.42127037 -5.893104076
11.71481991 -21.44625092 -5.890038013
11.63646984 -21.45902061 -5.883670807
11.5581398 -21.47151947 -5.877304077
11.49083996 -21.50429916 -5.876595974
11.08598995 -21.69832039 -5.872823238
11.0334301 -21.75996971 -5.880369186
10.99065018 -21.84145927 -5.893339157
10.95919037 -21.94636917 -5.912675858
10.91252041 -22.02168083 -5.923995972
10.79977989 -22.13451958 -5.936493874
10.82371044 -22.3573494 -5.987668037
12.08885956 -21.34976959 -6.058907986
11.9938097 -21.33431053 -6.043951035
11.92121029 -21.35829926 -6.040331841
11.86690998 -21.41514015 -6.046122074
11.79461002 -21.43954086 -6.04274416
11.71667957 -21.4534893 -6.036471844
11.64387035 -21.47653008 -6.032853127
11.56643009 -21.49078941 -6.02682209
11.48808956 -21.50307083 -6.020308018
11.42024994 -21.5347805 -6.019342899
11.34282017 -21.5482502 -6.013311863
11.2712698 -21.57262039 -6.010416985
11.20100975 -21.59934998 -6.008245945
11.13247013 -21.62929916 -6.007040024
11.06517982 -21.66161919 -6.006556988
10.99120998 -21.68074989 -6.002457142
10.93249035 -21.72997093 -6.006799221
10.8592701 -21.7503891 -6.003180027
10.79119968 -21.7809906 -6.002457142
10.73332024 -21.83229065 -6.00752306
10.66629028 -21.8651104 -6.00752306
10.68498993 -22.07505035 -6.05649519
12.06447983 -21.28684998 -6.201156139
11.99151993 -21.31026077 -6.197200775
11.93459034 -21.36216927 -6.201650143
11.33854008 -21.5191803 -6.164328098
11.26663017 -21.54269981 -6.16111517
11.20048046 -21.57715988 -6.16111517
11.13290024 -21.60884094 -6.160373211
11.05729008 -21.62478065 -6.155181885
10.9904604 -21.6577301 -6.154934883
10.92308998 -21.68961906 -6.15444088
10.82079029 -21.81874084 -6.172236919
10.71743965 -21.77792931 -6.151227951
10.65100002 -21.81158066 -6.151474953
10.64402008 -21.96797943 -6.186573029
11.92288017 -21.35372925 -6.348457813
11.84183025 -21.36228943 -6.340116978
11.7669096 -21.38155937 -6.335062027
11.69707966 -21.40991974 -6.332787991
11.6207304 -21.42614937 -6.326973915
11.55494022 -21.46170044 -6.326973915
11.4708004 -21.4629097 -6.316864014
11.40126991 -21.49117088 -6.314843178
11.32536983 -21.50720978 -6.309281826
11.25708961 -21.53757095 -6.308018208
11.19052029 -21.57114029 -6.307765007
11.12250996 -21.60193062 -6.306755066
11.05002022 -21.62388992 -6.303215981
10.98624992 -21.66287041 -6.3047328
10.92105007 -21.69906044 -6.305490971
10.85918045 -21.74198914 -6.308270931
10.79284954 -21.77606964 -6.308524132
10.71020031 -21.77695084 -6.299171925
10.67685986 -21.8784008 -6.319139004
10.61727047 -21.9267292 -6.323688984
11.10385036 -19.45150948 -5.948472023
11.97404003 -21.27800941 -6.488088131
11.93509007 -21.36186981 -6.502552986
11.83106995 -21.32910919 -6.48137188
11.75485992 -21.34584999 -6.475430012
11.6888504 -21.38096046 -6.475172043
11.55010986 -21.4386692 -6.471038818
11.46741962 -21.44248962 -6.461482048
11.39251995 -21.46050072 -6.456315994
11.31941986 -21.48167992 -6.452181816
11.25481033 -21.51888084 -6.452957153
11.18696022 -21.54986954 -6.451923847
11.12255955 -21.58753014 -6.452957153
11.05231953 -21.61380959 -6.450633049
10.98332977 -21.64245033 -6.449082851
10.91948986 -21.6812191 -6.450633049
10.85422039 -21.71721077 -6.451406956
10.80385017 -21.78329086 -6.461223125
10.72332001 -21.78860092 -6.452957153
10.6733799 -21.85611916 -6.463290215
10.62143993 -21.9200592 -6.472589016
10.59014034 -22.02742004 -6.494803905
11.96325016 -21.26259041 -6.633790016
11.8927803 -21.28993034 -6.630887985
11.82133007 -21.31534958 -6.627457142
11.75168991 -21.34391022 -6.625082016
11.67459011 -21.35870934 -6.618484974
11.59611988 -21.37068939 -6.611096859
11.52318001 -21.3925705 -6.606874943
11.45022011 -21.41422081 -6.602653027
11.38084984 -21.4424305 -6.600542068
11.31097031 -21.46956062 -6.598166943
11.24281025 -21.49988937 -6.596848011
11.17724037 -21.53513908 -6.597112179
11.10980034 -21.56675911 -6.596320152
11.0440197 -21.60160065 -6.596583843
10.97638035 -21.63279915 -6.59579277
10.90995979 -21.66637039 -6.59579277
10.8421402 -21.69714928 -6.595001221
10.78067017 -21.74068069 -6.598166943
10.71648026 -21.77885056 -6.599750996
10.65552998 -21.82375908 -6.603445053
10.60157013 -21.88324928 -6.611625195
12.06110001 -21.27223015 -6.800777912
11.96885014 -21.26129913 -6.785420895
11.89651966 -21.28531075 -6.781380177
11.89284039 -21.43285942 -6.816944122
11.79496956 -21.4110508 -6.798353195
11.72968006 -21.44798088 -6.798623085
11.6638298 -21.48386002 -6.798623085
11.58415985 -21.49411011 -6.790540218
11.52270031 -21.53804016 -6.793233871
11.40960026 -21.48483086 -6.765213966
11.19451046 -21.55645943 -6.754975796
11.13449955 -21.60268974 -6.758748055
10.99040031 -21.64826965 -6.75174284
10.77956963 -21.72607994 -6.744738102
10.71286011 -21.75905037 -6.744738102
10.68198013 -21.86536026 -6.76763916
11.89675999 -21.30695915 -6.938391209
11.82901001 -21.33914948 -6.93701601
11.75699043 -21.36355019 -6.933166981
11.68309975 -21.38433075 -6.928216934
11.60688972 -21.40063095 -6.92189312
11.53160954 -21.41836929 -6.916119099
11.45769024 -21.43837929 -6.911170006
11.38780975 -21.46578979 -6.908695221
11.31472969 -21.48700905 -6.904294968
11.24608994 -21.51651001 -6.902646065
11.17780972 -21.54664993 -6.901269913
11.10988998 -21.57741928 -6.900170803
11.0410099 -21.6062603 -6.898520947
10.9716301 -21.63402939 -6.896595955
10.90520954 -21.66758919 -6.896595955
10.83609962 -21.69578934 -6.894947052
10.76650047 -21.72290039 -6.89302206
10.70149994 -21.75927925 -6.894122124
10.65367031 -21.83089066 -6.906495094
10.61345959 -21.91885948 -6.92409277
10.55657005 -21.9729805 -6.930966854
11.9647398 -21.25281906 -7.091125011
11.89291954 -21.27769089 -7.08719492
11.81966972 -21.29981041 -7.082424164
11.75102997 -21.33008957 -7.080460072
11.67494011 -21.34667015 -7.074004173
11.60251999 -21.36973953 -7.069794178
11.53007984 -21.39255905 -7.065584183
11.45804977 -21.41599083 -7.061655045
11.38823986 -21.44341087 -7.059129238
11.31972027 -21.47315025 -7.057445049
11.2502203 -21.50098038 -7.0552001
11.18420982 -21.53539085 -7.0552001
11.11633015 -21.56619072 -7.054077148
11.04924011 -21.59848022 -7.053514957
10.98161983 -21.62970924 -7.052672863
10.91477013 -21.66245079 -7.05239296
10.84782982 -21.69496918 -7.052112103
10.78164959 -21.72900963 -7.05239296
10.71535969 -21.76284981 -7.052672863
10.67846012 -21.85684967 -7.072600842
12.24328995 -21.45992088 -7.329230785
11.71998978 -21.29512024 -7.210030079
11.64908028 -21.32088089 -7.206599236
11.56350994 -21.31945992 -7.194022179
11.49940968 -21.35737038 -7.194879055
11.43157959 -21.38832092 -7.193449974
11.35198021 -21.39705086 -7.184587955
11.29477024 -21.44788933 -7.190020084
11.23468018 -21.49348068 -7.193736076
11.16956997 -21.52955055 -7.19430685
11.10435009 -21.56542015 -7.194879055
11.0385704 -21.60022926 -7.195165157
10.97224998 -21.63400078 -7.195165157
10.90452957 -21.66498947 -7.19430685
10.83930016 -21.7009201 -7.195165157
10.77309036 -21.73493004 -7.195450783
10.72031975 -21.79624939 -7.204884052
11.85910988 -21.22705078 -7.360435963
11.71203041 -21.26925087 -7.349953175
11.30070972 -21.44737053 -7.338304996
10.96866035 -21.61478043 -7.337140083
10.89369011 -21.63124084 -7.331315994
10.82641983 -21.66284943 -7.330732822
10.72675991 -21.62911034 -7.308020115
14.98952961 30.48866081 -6.95301199
14.51733971 30.20395088 -7.254850864
14.57201958 30.08099937 -7.23592186
14.65427017 30.51091003 -7.550946236
14.57744026 30.10243988 -7.669589996
31.33745956 -29.64232063 -5.648346901
30.98122025 -27.91373062 -5.963389874
27.25683022 -26.11679077 -6.325668812
24.35796928 -28.95545959 -6.340631008
27.33583069 -27.83444023 -6.790946007
24.12948036 -26.94681931 -6.730137825
24.04604912 -27.01999092 -6.729953766
24.46578979 -26.83441925 -6.973342896
24.37808037 -26.90353966 -6.97182703
18.00931931 11.56293011 -7.667469978
15.53726959 34.21509171 -7.694664001
40.64593887 -8.744989395 -3.636418104
40.5922699 -8.851640701 -3.896908998
40.59009171 -8.86865139 -4.138541222
40.66165924 -8.730881691 -4.413997173
40.70735168 -8.758202553 -4.66937685
40.66078186 -8.738636971 -5.186285019
39.75535965 -9.443628311 -5.588051796
39.81008148 -9.330321312 -5.846433163
39.7273407 -9.439599991 -5.838456154
39.93799973 -9.233766556 -6.116940022
39.91044998 -9.356476784 -6.117087841
39.87482071 -9.477275848 -6.116048813
40.03253174 -9.233000755 -6.394851208
40.00400925 -9.355774879 -6.394851208
39.98088837 -9.479828835 -6.395780087
