# .PCD v0.7 - Point Cloud Data file format
VERSION 0.7
FIELDS x y z
SIZE 4 4 4
TYPE F F F
COUNT 1 1 1
WIDTH 342
HEIGHT 1
VIEWPOINT 0 0 0 1 0 0 0
POINTS 342
DATA ascii
10.84790993 27.38178062 -8.016749382
14.9486599 30.85331917 -6.798842907
14.97525978 30.45965958 -6.946360111
12.39025021 34.30920029 -7.687482834
10.66129017 37.17321014 -8.378063202
14.53367996 30.00185966 -7.216780186
24.49584007 -36.66511917 -6.033285141
24.45782089 -38.10858917 -6.19670105
24.42705917 -38.31877899 -6.218799114
25.68502998 -35.3155899 -6.246449947
25.42803001 -35.41704941 -6.236620903
25.26522064 -35.41915131 -6.223229885
25.12553024 -35.45288086 -6.215537071
24.4384594 -36.5840683 -6.293602943
24.37426949 -36.73144913 -6.306138992
24.33499908 -36.91762924 -6.325370789
24.3398304 -37.17263031 -6.356425762
24.43823051 -38.0831604 -6.474094868
24.39255905 -38.26979828 -6.49318409
25.45237923 -35.22692871 -6.487595081
25.3245697 -35.2775383 -6.482545853
25.20359039 -35.33734894 -6.479279041
25.03445053 -35.32897949 -6.46353817
24.91967964 -35.39672852 -6.461905003
24.80019951 -35.45761871 -6.45908308
24.65801048 -35.48561859 -6.450322151
24.45491028 -35.65827179 -6.454330921
24.38771057 -35.79523849 -6.46561718
24.3237896 -35.93787003 -6.477942944
24.33481026 -36.67686844 -6.571052074
24.28421974 -36.8454895 -6.587981224
24.31406975 -37.13824081 -6.627184868
24.3337307 -37.41825104 -6.664012909
24.87483978 -35.06404877 -6.69359684
24.70342064 -35.27914047 -6.705665112
24.60183907 -35.36449814 -6.707520962
31.20974922 -29.70346069 -5.641681194
30.96871948 -27.90246964 -5.960968018
24.35565948 -29.31217003 -6.147443771
24.26561928 -29.38674927 -6.147443771
24.33416939 -29.10798073 -6.357756138
24.06369019 -27.03981018 -6.734920979
29.96087074 5.489133835 -3.977226019
29.82354927 5.180747032 -3.952263117
29.42988968 6.701982975 -4.117719173
29.43291092 6.607757092 -4.115262985
29.45014 6.516784191 -4.114853859
29.45644951 6.423447132 -4.11294508
29.47504997 6.332838058 -4.112808228
29.4943409 6.242380142 -4.112808228
29.48813057 6.146606922 -4.10926199
29.51559067 6.057902813 -4.110488892
29.51753044 5.96398592 -4.108170986
29.53373909 5.87301302 -4.107898235
29.53606987 5.779334068 -4.105714798
29.57311058 5.692436218 -4.108442783
29.55734062 5.595416069 -4.103806019
29.57728958 5.505252838 -4.104215145
29.59306908 5.414307117 -4.104077816
29.5949192 5.320861816 -4.102032185
29.59744072 5.227629185 -4.100121975
29.56649017 5.12867403 -4.093575001
29.63579941 5.047088146 -4.10107708
29.3964901 6.597437859 -4.29764986
29.43494987 6.511281967 -4.300355911
29.43835068 6.417362213 -4.297935009
29.40950966 6.316623211 -4.290812016
29.18181992 6.174118996 -4.254486084
29.0795002 6.059319973 -4.236679077
29.3386898 6.582326889 -4.476610184
29.41087914 6.503818989 -4.484629154
29.43939018 6.415452003 -4.485966206
29.28779984 6.288352013 -4.459681988
29.01477051 6.136659145 -4.414834023
28.89114952 6.017963886 -4.393004894
28.87459946 5.92214489 -4.387659073
28.88585091 5.83216095 -4.386620045
28.88323975 5.739463806 -4.383501053
28.86091995 5.643043041 -4.377411842
28.87906075 5.55465889 -4.377561092
28.89110947 5.465114117 -4.376819134
28.89315987 5.373738766 -4.374590874
28.89588928 5.282579899 -4.372511864
28.94018936 5.19897604 -4.376819134
28.93263054 5.106039047 -4.373253822
28.92671967 5.013534069 -4.369987011
29.38484955 6.60987711 -4.677875996
29.4262104 6.52439785 -4.681279182
29.43932915 6.432612896 -4.680195808
29.36137962 6.321266174 -4.664569855
28.83070946 6.114550114 -4.576539993
28.75938988 6.007287025 -4.562151909
28.70994949 5.905096054 -4.551321983
28.69791031 5.810910225 -4.546525955
28.69720078 5.719171047 -4.543587208
28.69231033 5.626729965 -4.540029049
28.69681931 5.536243916 -4.538016796
28.7146492 5.448361874 -4.538171768
28.7137394 5.356979847 -4.535387039
28.72421074 5.267793179 -4.534459114
28.74315071 5.180170059 -4.534923077
28.76280022 5.09265089 -4.535542011
29.45685005 6.613130093 -4.861792088
29.45387077 6.517608166 -4.857946873
29.47565079 6.427635193 -4.85826683
29.47303963 6.332406044 -4.854581833
28.56121063 5.497671127 -4.682498932
28.56921005 5.408369064 -4.681056976
28.57402039 5.318527222 -4.679134846
28.57563972 5.228172779 -4.676732063
28.59737968 5.14152813 -4.67769289
28.60717964 5.05273819 -4.676732063
29.49202919 6.618881226 -5.057162762
29.4736805 6.519849777 -5.050511837
29.49065971 6.42876482 -5.050014019
29.51506042 6.339293957 -5.050845146
28.49510956 5.846383095 -4.865472794
28.45202065 5.746634007 -4.855000019
28.41707039 5.558317184 -4.843029022
28.40784073 5.466077805 -4.838541031
28.41576004 5.37724781 -4.837043762
28.42727089 5.289142132 -4.836213112
28.46504021 5.025566101 -4.834549904
29.48139 6.530201912 -5.247392178
29.50321007 6.440144062 -5.247736931
28.37137032 6.010893822 -5.038217068
28.30484962 5.634774208 -5.013556957
28.30364037 5.544311047 -5.010281086
28.35050011 5.463230133 -5.015625954
28.31292915 5.365952015 -5.005969048
28.33506966 5.280147076 -5.007003784
28.32884979 5.189107895 -5.00303793
28.3359108 5.100601196 -5.001485825
28.35918999 5.015017033 -5.002864838
29.55203056 6.541472912 -5.43965292
29.52773094 6.441133022 -5.43145895
28.20336914 6.061708927 -5.182631969
28.14328003 5.24041605 -5.142735004
28.20762062 5.162905216 -5.151639938
28.20879936 5.073729038 -5.148969173
29.50185966 6.533625126 -5.615760803
29.52463913 6.443713188 -5.616312981
29.54138947 6.352481842 -5.615760803
29.48843002 6.523112774 -5.793024063
29.51405907 6.433866978 -5.794160843
29.5250206 6.341434002 -5.792455196
29.45352936 6.513249874 -5.977305889
29.4867897 6.425780773 -5.980044842
29.46705055 6.326845169 -5.972024918
28.12614059 5.052702904 -5.660429001
29.47390938 6.529579163 -6.173862934
28.1031208 5.95514679 -5.87308979
28.05592918 5.229218006 -5.834384918
28.09808922 5.058879852 -5.836602211
29.52112961 6.537893772 -6.365364075
27.97123909 5.925139904 -6.017013073
27.95480919 5.83210516 -6.009552002
27.97831917 5.747495174 -6.01079607
27.97184944 5.656784058 -6.005615234
27.99194908 5.57151413 -6.00623703
27.98106956 5.480156898 -6.000226974
27.95067978 5.385218143 -5.990073204
27.98534012 5.302902222 -5.994009972
27.99954987 5.216660023 -5.993596077
28.01542091 5.130733967 -5.993596077
28.05028915 5.048224926 -5.997739792
29.51312065 6.52857399 -6.539790154
27.93058014 5.909370899 -6.174602032
27.94284058 5.822456837 -6.173326015
27.94238091 5.732971191 -6.169284821
27.95601082 5.646443844 -6.168434143
27.95882034 5.557792187 -6.165244102
27.96327972 5.469551086 -6.162478924
27.97417068 5.38262701 -6.161202908
27.9838295 5.295506001 -6.159714222
27.99994087 5.209628105 -6.159714222
27.93408012 5.918229103 -6.363822937
28.00172997 5.574418068 -6.363165855
27.96315956 5.477602005 -6.350473881
27.95301056 5.38661623 -6.344347
27.95789909 5.298651218 -6.341722012
28.00375938 5.218395233 -6.34850502
28.01771927 5.13210392 -6.348066807
28.03141022 5.045776844 -6.347630024
27.91917038 5.911086082 -6.538225174
27.92190933 5.822220802 -6.534630775
27.94728088 5.738098145 -6.536427975
27.97718048 5.565557957 -6.535305977
27.99604034 5.480073929 -6.535755157
28.0280304 5.397105217 -6.539348125
28.03870964 5.310002804 -6.53800106
28.06156921 5.225204945 -6.539573193
28.03816986 5.131896973 -6.530364037
28.05953979 5.046887875 -6.531712055
28.00394058 5.479561806 -6.705471992
27.98572922 5.652447224 -6.88826704
27.99817085 5.565614223 -6.887086868
27.9630909 5.202771187 -6.862090111
28.05443954 5.130768776 -6.880720139
28.07196045 5.04501915 -6.881192207
21.25068092 0.5243806243 -6.567564011
19.48760986 -1.189687014 -6.392859936
18.66683006 5.604358196 -6.860001087
18.86755943 -2.205559015 -6.685085773
18.77415085 -2.311490059 -6.656712055
18.75387001 -2.367424011 -6.652039051
18.76615906 -2.427489996 -6.659049034
18.7464695 -2.483442068 -6.654708862
17.8098793 6.498633862 -6.787341118
17.82353973 6.441724777 -6.784968853
17.84588051 6.387963772 -6.785984993
17.85918999 6.330984116 -6.783613205
17.88702965 6.217576027 -6.779545784
18.03926086 5.961956024 -6.801914215
18.09160995 5.85637188 -6.808013916
18.20356941 5.830973148 -6.843598843
18.28774071 5.796131134 -6.868678093
18.34674072 5.752944946 -6.884266853
18.36429977 5.696630955 -6.884266853
18.7858696 -2.256058931 -6.773785114
18.77512932 -2.313221931 -6.772428989
19.20858002 -3.088146925 -6.966280937
19.18741989 -3.205640078 -6.965603828
19.27395058 -3.280913115 -7.000850201
19.28882027 -3.344368935 -7.010000229
17.78318024 6.490699768 -6.89316988
17.7959404 6.433557987 -6.890419006
17.79438019 6.371333122 -6.882163048
17.8262291 6.321105003 -6.886979103
17.81631088 6.256117821 -6.875627041
17.85493088 6.208212852 -6.883194923
17.8721199 6.152794838 -6.882506847
17.99316025 6.071238041 -6.914842129
18.0802803 6.038914204 -6.941329002
18.10140038 5.984300137 -6.942360878
18.15269089 5.939541817 -6.955088139
18.17797089 5.886137009 -6.957839966
18.2048893 5.833205223 -6.961279869
18.26029015 5.789245129 -6.975728035
18.31022072 5.743313789 -6.988111019
18.33852005 5.690451145 -6.992238998
19.21652985 -1.769420981 -7.027668953
18.9333992 -2.1542871 -6.938920975
18.76030922 -2.426632881 -6.888010979
19.1202507 -3.012017965 -7.048996925
19.01078987 -3.05457902 -7.011846066
19.1236496 -3.13292408 -7.05725193
19.15932083 -3.199157 -7.074108124
19.14015961 -3.256346941 -7.070668221
17.77067947 6.426226139 -6.993159771
17.7761898 6.366620064 -6.987576962
17.86284065 6.029047012 -6.976761818
17.98435974 6.008670807 -7.017233849
18.01338959 5.956998825 -7.021420002
18.08234978 5.918326855 -7.041307926
18.14410019 5.876976013 -7.058403969
18.23880005 5.845887184 -7.088408947
19.32448006 -1.658077002 -7.17877388
19.16472054 -1.822213054 -7.125043869
19.02910042 -2.045244932 -7.083176136
19.05117035 -2.999368906 -7.137952805
18.96600914 -3.045624018 -7.109343052
19.14801979 -3.135129929 -7.181564808
18.69053078 5.490221024 -7.334351063
19.07044029 -1.929898977 -7.216073036
18.83202934 -2.668023109 -7.16012001
18.85707092 -2.730612993 -7.172869205
18.17515945 5.767426968 -7.300284863
18.19632912 5.712757111 -7.301723003
18.18703079 5.648602009 -7.290942192
26.29379082 29.91337013 -5.693577766
26.31002045 29.74729919 -5.677196026
26.28009033 29.53038979 -5.650982857
26.26227951 29.32868958 -5.627621174
26.27858925 29.16636086 -5.611807823
26.29482079 29.0049305 -5.596138
26.31298065 28.84660912 -5.581037998
26.22536087 29.64780045 -5.905326843
26.20115089 29.43792915 -5.879340172
26.20029068 29.25573921 -5.858847141
26.23167038 29.11057091 -5.845778942
26.26705933 28.97060966 -5.833749771
26.07654953 29.87906075 -6.171604156
26.16418076 29.79446983 -6.170676231
26.16584015 29.61263084 -6.14948082
26.21126938 29.48126984 -6.138805866
26.1230793 29.2011795 -6.096879005
26.15504074 29.05701065 -6.083418846
26.1837101 28.90999985 -6.069341183
26.11566925 29.8990097 -6.405247211
26.17338943 29.78018951 -6.396914959
26.18288994 29.60732079 -6.376886845
26.15681076 29.39559937 -6.348367214
26.1178093 29.17107964 -6.316961765
26.08562088 28.95586967 -6.287480831
26.10671043 28.80110931 -6.271138191
26.13707924 28.65743065 -6.257197857
26.19506073 29.80105019 -6.650691986
26.15309906 29.56986046 -6.616776943
26.12306976 29.3539505 -6.586185932
26.12618065 29.17668915 -6.564240932
26.09873962 28.96673012 -6.534813881
26.11993027 28.81200981 -6.517857075
26.09057999 28.60279083 -6.488430023
26.08618927 28.42235947 -6.465487003
26.15921974 28.32698059 -6.461996078
26.17486 28.17001915 -6.444373131
26.07416916 28.95607948 -6.782669067
26.09410095 28.80002975 -6.764735222
26.08147049 28.60918999 -6.738523006
26.13849068 28.49564934 -6.730589867
15.40503979 29.02625084 -7.113200188
26.21291924 30.19297981 -5.716228008
26.26180077 30.06248093 -5.706684113
26.24267006 30.79528046 -6.782697201
26.18169975 30.53347015 -6.742464066
26.22887039 30.39925003 -6.730494022
26.18754959 30.16375923 -6.695912838
26.22158051 30.01643944 -6.680950165
26.16530037 30.72229004 -7.025815964
26.23764038 30.61643982 -7.019952774
26.23496056 30.4239006 -6.994085789
26.28041077 30.28821945 -6.98132515
40.67321014 -8.7508564 -3.638883114
40.63481903 -8.730409622 -3.89841795
40.61075974 -8.855670929 -3.898699999
40.65618896 -8.883091927 -4.145341873
40.8458519 -8.639429092 -4.431240082
40.80263138 -8.761153221 -4.429430962
40.85889053 -8.790808678 -4.686902046
39.77257156 -9.318903923 -5.586414814
39.76499939 -9.44591713 -5.589416981
39.89059067 -9.220178604 -5.854125977
39.88525009 -9.347937584 -5.857544899
39.79859924 -9.456531525 -5.84899807
39.65681076 -9.55147171 -5.832330227
39.96305084 -9.239557266 -6.120800018
39.95954895 -9.367986679 -6.124660969
39.93061829 -9.49053669 -6.124660969
40.05659103 -9.238552094 -6.398718834
40.02613831 -9.36095047 -6.398409843
39.99435043 -9.483020782 -6.397944927
