# .PCD v0.7 - Point Cloud Data file format
VERSION 0.7
FIELDS x y z
SIZE 4 4 4
TYPE F F F
COUNT 1 1 1
WIDTH 407
HEIGHT 1
VIEWPOINT 0 0 0 1 0 0 0
POINTS 407
DATA ascii
14.98814964 -4.648081779 -4.640188217
14.92078018 -4.677422047 -4.623608112
14.8707304 -4.711890221 -4.612460136
14.93410969 -4.626752853 -4.718059063
14.85046005 -4.650814056 -4.695928097
14.73670959 -4.664875984 -4.664186001
14.68041992 -4.696652889 -4.650791168
14.61223984 -4.724301815 -4.633609772
14.45400047 -4.722157955 -4.587600231
14.50162029 -4.690041065 -4.697250843
14.38368988 -4.700689793 -4.663407803
14.31750965 -4.72772789 -4.646485806
14.27667046 -4.762866974 -4.637876987
14.18778992 -4.781634808 -4.61353302
13.98412991 -4.760815144 -4.551486015
14.01589966 -4.767682076 -4.652264118
12.97723961 -4.914060116 -4.695882797
12.91524982 -4.935945034 -4.678760052
12.86472988 -4.961924076 -4.665835857
12.84416008 -4.999310017 -4.663897991
12.77952957 -4.925415993 -4.719696999
12.70802021 -4.942691803 -4.698680878
12.65497971 -4.966821194 -4.684560776
12.62475014 -4.999711037 -4.67897892
12.53509045 -4.964869022 -4.732648849
12.50578976 -4.997704983 -4.727309227
12.4309597 -5.012073994 -4.704609871
12.36225986 -5.0285182 -4.684247017
12.29570007 -4.958985806 -4.733932972
12.25166988 -4.984982967 -4.722749233
12.20411968 -5.009327888 -4.710209846
12.16261959 -5.0359478 -4.700043201
12.10109997 -5.054020882 -4.682081223
12.03351021 -5.069207191 -4.661746979
12.03353977 -5.024794102 -4.735336781
11.27513981 26.9821701 -8.322570801
14.98309994 30.71319962 -6.993935108
14.98606968 30.48163033 -6.951398849
12.39258003 34.3156395 -7.688933849
12.49578953 34.27193832 -7.687691212
14.53637981 30.24357986 -7.26442194
14.57968998 30.09683037 -7.239749908
14.66895008 30.0458107 -7.238261223
14.60453987 30.16983032 -7.477201939
14.57787037 30.09820938 -7.865612984
23.93069077 -30.65382957 -6.769217968
31.31918907 -29.44348907 -5.628612041
31.25247955 -29.5619297 -5.632925034
31.22014999 -29.89645004 -5.660241127
30.9584198 -27.89319038 -5.958972931
30.99675941 -27.08135986 -6.142333031
30.9892807 -27.24291992 -6.157479763
30.94408035 -27.37194061 -6.165202141
30.89541054 -27.49830055 -6.172329903
27.29100037 -26.14953041 -6.333649158
24.12096024 -26.93729973 -6.727746964
24.03623962 -27.00897026 -6.727194786
24.47373009 -26.84313011 -6.975618839
24.34379005 -26.86569977 -6.961966991
21.64179993 -1.400735021 -4.286312103
21.53466988 -1.460163951 -4.26577282
20.96676064 -1.809939981 -4.158191204
20.95524979 -1.873733044 -4.157017231
20.91114044 -1.999199033 -4.15056181
20.88433075 -3.562267065 -4.186357975
21.33176994 -1.437546015 -4.360958099
21.13282013 -1.489271045 -4.320840836
20.84007072 -1.597190022 -4.262380123
20.79406929 -1.657848001 -4.253912926
20.67564964 -1.712250948 -4.230527878
20.54929924 -1.765272975 -4.20553112
20.54964066 -1.828830957 -4.206740856
20.49028969 -1.886924982 -4.195652962
20.53120041 -1.954236984 -4.205328941
20.45005035 -2.009835005 -4.189806938
20.43148994 -2.134665012 -4.188598156
20.45601082 -2.200692892 -4.195047855
20.41996002 -2.260205984 -4.189001083
20.44017029 -2.325944901 -4.194644928
20.46698952 -2.392627001 -4.201701164
20.45858002 -2.455290079 -4.201498985
20.49081039 -2.522953987 -4.209764004
20.46062088 -2.582984924 -4.205128193
20.4574604 -2.646373987 -4.206136227
20.46964073 -2.711826086 -4.21036911
20.48159981 -2.777378082 -4.214601994
20.48461914 -2.841818094 -4.217021942
20.49230003 -2.906990051 -4.220448971
20.49588013 -2.971673012 -4.223070145
20.49732971 -3.036118984 -4.225286961
20.5681591 -3.564501047 -4.256937027
20.56002045 -3.628097057 -4.257542133
20.4061203 -3.665520906 -4.227705956
20.96195984 -1.478916049 -4.411818981
20.76218987 -1.528846979 -4.370372772
31.28808975 -2.400661945 -6.607614994
20.45498085 -1.632469058 -4.307168007
20.42843056 -1.693438053 -4.302608967
20.29935074 -1.745458007 -4.276290894
20.29974937 -1.808248043 -4.277534008
20.30871964 -1.871865034 -4.280642986
20.3077507 -1.934627056 -4.281679153
20.32022095 -1.998741031 -4.285615921
20.34708023 -2.064430952 -4.292662144
20.3591404 -2.128777981 -4.296598911
20.36321068 -2.192382097 -4.298879147
20.37778091 -2.257215023 -4.303438187
20.38339996 -2.321161985 -4.30613184
20.39366913 -2.385731936 -4.309862137
20.39402008 -2.449220896 -4.3115201
20.40195084 -2.513691902 -4.314836025
20.41354942 -2.5787251 -4.318980217
20.42398071 -2.643727064 -4.322916985
20.43420029 -2.708817959 -4.326855183
20.44227028 -2.773732901 -4.330378056
20.45014 -2.838721991 -4.333899975
20.45682907 -2.903649092 -4.3372159
20.46816063 -2.969346046 -4.341567993
20.47443962 -3.034423113 -4.344882965
20.47566986 -3.098834038 -4.3471632
20.48347092 -3.164325953 -4.350893021
20.48139954 -3.228372097 -4.352550983
20.48008919 -3.292591095 -4.354415894
20.49402046 -3.359364033 -4.359597206
20.45470047 -3.481930017 -4.355659008
20.52296066 -3.558373928 -4.372652054
20.52448082 -3.623532057 -4.375346184
20.51519012 -3.686830044 -4.375761032
20.68626022 -1.528566003 -4.475427151
20.52364922 -1.579877019 -4.440970898
20.31611061 -1.626618981 -4.396731853
20.27013016 -1.685539961 -4.387798786
20.26874924 -1.748056054 -4.38864994
20.27302933 -1.811100006 -4.390777111
20.24012947 -1.87077105 -4.384820938
20.20512009 -1.930070996 -4.378440857
20.2953701 -2.001543045 -4.399497032
20.31245995 -2.066170931 -4.404602051
20.31380081 -2.129293919 -4.406302929
20.3343792 -2.194540977 -4.412259102
20.34502983 -2.258856058 -4.416087151
20.35450935 -2.323147058 -4.419703007
20.35699081 -2.386719942 -4.421829224
20.36412048 -2.450913906 -4.425020218
20.37008095 -2.515054941 -4.427998066
20.3748703 -2.579133034 -4.430761814
20.39303017 -2.645023108 -4.436504841
20.40806007 -2.710661888 -4.441608906
20.4199791 -2.776025057 -4.446075916
20.4239502 -2.84040904 -4.448841095
20.43255043 -2.90553093 -4.452669144
20.43997955 -2.970592022 -4.456285
20.44914055 -3.036012888 -4.460326195
20.45421982 -3.100933075 -4.463517189
20.46199036 -3.166359901 -4.467345238
20.46472931 -3.23110199 -4.47010994
20.46050072 -3.294804096 -4.471385956
20.46573067 -3.360093117 -4.474789143
20.47171021 -3.425606012 -4.478404999
20.47266006 -3.490366936 -4.480957031
20.48591995 -3.557338953 -4.486273766
20.49703979 -3.624083996 -4.491166115
20.49929047 -3.68937397 -4.494143963
20.46865082 -3.748728037 -4.489890099
20.62000084 -1.518121004 -4.597033978
20.48390007 -1.571306944 -4.567492008
20.38561058 -1.626698017 -4.546484947
20.24827003 -1.678277969 -4.516725063
20.2614994 -1.741978049 -4.520883083
20.25507927 -1.804044962 -4.520664215
20.25723076 -1.866894007 -4.522415161
20.25528908 -1.929402947 -4.523290157
20.27452087 -1.994017959 -4.528978825
20.28480911 -2.057883978 -4.532699108
20.30170059 -2.122540951 -4.537950993
20.3047905 -2.185858965 -4.540139198
20.32224083 -2.250827074 -4.545609951
20.33366013 -2.315260887 -4.549767017
20.34001923 -2.379219055 -4.552831173
20.34812927 -2.443470955 -4.556333065
20.58330917 -1.517601013 -4.71752882
20.35024071 -1.56319201 -4.664744854
20.34436989 -1.625540018 -4.664521217
20.34219933 -1.688189983 -4.665194988
20.29517937 -1.746994972 -4.655537128
20.2518692 -1.80587399 -4.646777153
20.22294998 -1.865847945 -4.641386032
20.24040985 -1.930102944 -4.646777153
20.26349068 -1.995056987 -4.653514862
20.26792908 -2.058299065 -4.655985832
20.2760601 -2.121992111 -4.659355164
20.28399086 -2.185755014 -4.662724018
20.29656029 -2.250123978 -4.667215824
20.30891991 -2.314589977 -4.671709061
20.32302094 -2.379379988 -4.676650047
20.33497047 -2.444046021 -4.681141853
21.37221909 -1.445731044 -5.023808002
20.36440086 -1.56595099 -4.788238049
20.27317047 -1.621513009 -4.767763138
20.29137039 -1.685636997 -4.773283958
20.25119972 -1.744874001 -4.765003204
20.23605919 -1.806130052 -4.762701988
20.21200943 -1.866505027 -4.758330822
20.20812988 -1.928689957 -4.75879097
20.26893997 -1.997264981 -4.774664879
20.25787926 -2.05894804 -4.773513794
20.2630806 -2.122304916 -4.776275158
20.27581978 -2.186548948 -4.78087616
20.28160095 -2.250138998 -4.783866882
20.29393005 -2.314557076 -4.788467884
20.30414009 -2.37884593 -4.792609215
20.32379913 -2.444380999 -4.799049854
21.50805092 -1.390367031 -5.190122128
21.1633606 -1.433303952 -5.107348919
21.03866959 -1.489716053 -5.07810688
20.51549911 -1.515951037 -4.951942921
20.43324089 -1.572919011 -4.933077812
20.28784943 -1.624356985 -4.89888382
20.24361992 -1.745887995 -4.890629768
20.22073936 -1.806431055 -4.886384964
20.19187927 -1.866312027 -4.880724907
20.19669914 -1.929268003 -4.883318901
20.25839043 -1.997895956 -4.899827003
20.20285034 -2.055023909 -4.887800217
21.13132095 -1.432836056 -5.224925995
20.81318092 -1.475443006 -5.146761894
20.58789062 -1.522979021 -5.091759205
20.42926979 -1.574287057 -5.053400993
20.33245087 -1.629595995 -5.030482769
20.28866959 -1.688748956 -5.020833015
20.26211929 -1.749150991 -5.015524864
20.22089005 -1.808109999 -5.006598949
20.17852974 -1.866744041 -4.997432232
20.96990013 -1.413140059 -5.320990086
20.73059082 -1.460903049 -5.260928154
20.45059967 -1.504222989 -5.190485001
20.36665916 -1.560881972 -5.170217991
20.24523926 -1.739137053 -5.143029213
20.20313072 -1.79797399 -5.133635998
21.04076958 -1.423303962 -5.468653202
20.77765083 -1.469550967 -5.400917053
20.49225998 -1.512557983 -5.327367783
20.36597061 -1.566071987 -5.295522213
20.29162979 -1.622990966 -5.277325153
20.28462982 -1.685076952 -5.276819229
20.24370003 -1.744227052 -5.267467022
20.20933914 -1.803745031 -5.259884834
20.18055916 -1.926058054 -5.255335808
20.7551403 -1.462370038 -5.523029804
20.48752975 -1.506700039 -5.45250988
20.35276985 -1.559586048 -5.417637825
20.31514931 -1.619410992 -5.408854961
20.25231934 -1.676946998 -5.393355846
20.25093079 -1.739403009 -5.394390106
20.21855927 -1.799126983 -5.387156963
20.18215942 -1.858314037 -5.378890991
20.18790054 -1.921321988 -5.381989956
20.27132034 -1.992033005 -5.406013012
16.59543991 -4.424687862 -4.552030087
16.55380058 -4.468029976 -4.544281006
22.09680939 -1.286326051 -6.014743805
22.18902969 -1.360008001 -6.04113102
21.17362976 -1.428282976 -5.765120029
20.71211052 -1.461024046 -5.639780998
20.51417923 -1.510336041 -5.586741924
20.42481995 -1.566777945 -5.563520908
20.38338089 -1.626520038 -5.553493977
20.26486015 -1.679653049 -5.522356987
20.25960922 -1.741816044 -5.522356987
20.22246933 -1.801141977 -5.513648987
20.22327042 -1.988981009 -5.51866293
16.50209045 -4.401375771 -4.631784916
16.40469933 -4.429359913 -4.608036995
16.32869911 -4.46263504 -4.590356827
16.2451992 -4.493429184 -4.570567131
22.16674995 -1.285155058 -6.171402931
20.80048943 -1.333979011 -5.790707111
20.55681992 -1.508437991 -5.726046085
20.40039062 -1.559888959 -5.683475971
20.37054062 -1.620481968 -5.676471233
20.26565933 -1.674716949 -5.648450851
20.23966026 -1.797669053 -5.644139767
20.2052803 -1.857108951 -5.636057854
20.1985302 -1.918998003 -5.635787964
20.23662949 -1.985285044 -5.648181915
16.10824966 -4.450879097 -4.634878159
16.0657692 -4.492236137 -4.626525879
15.93515968 -4.508461952 -4.592577934
15.88792038 -4.547786236 -4.582879066
15.91829967 -4.609367847 -4.59581089
22.13017082 -1.292523026 -6.299095154
20.75460052 -1.339987993 -5.907268047
20.59403038 -1.393075943 -5.862448215
20.44580078 -1.446074009 -5.821203232
20.33675957 -1.50107801 -5.791232109
20.35026932 -1.564864039 -5.79645586
20.32428932 -1.625602961 -5.790407181
20.25979996 -1.683014035 -5.773358822
20.24881935 -1.995282054 -5.778308868
15.5125103 -4.602615833 -4.586880207
21.97566032 -1.138450027 -6.393949032
22.04970932 -1.277987003 -6.417805195
21.73241043 -1.326513052 -6.326026917
21.73781013 -1.393795013 -6.328834057
20.50094032 -1.377678037 -5.967616081
20.3568306 -1.430745959 -5.92663908
20.31693077 -1.490594983 -5.916254044
20.49696922 -1.567036986 -5.970423222
20.39255905 -1.622001052 -5.941233158
20.29183006 -1.676655054 -5.913167
20.25790024 -1.736443043 -5.904747009
20.26968956 -1.800112963 -5.909799099
20.25834084 -1.861763954 -5.90811491
20.23533058 -1.922273993 -5.90306282
20.25608063 -1.986968994 -5.91092205
15.14033985 -4.637092113 -4.589541912
21.97451973 -1.147812963 -6.523118019
21.77573013 -1.271463037 -6.465948105
21.70476913 -1.334151983 -6.44593811
21.71109962 -1.401414037 -6.449081898
21.70764923 -1.468080044 -6.449368
20.40494919 -1.44295001 -6.061175823
20.37080002 -1.503360033 -6.052313805
20.41769028 -1.569813013 -6.067749977
20.3611908 -1.628324986 -6.052313805
20.28829956 -1.685155988 -6.032019138
20.26489067 -1.745830059 -6.026587009
20.23843002 -1.931360006 -6.023728848
20.19617081 -1.989873052 -6.01286602
21.70871925 -1.329213977 -6.579430103
21.67877007 -1.394150972 -6.571567059
21.68297958 -1.46123302 -6.574188232
20.37388039 -1.435745001 -6.176113129
20.36841965 -1.498173952 -6.175821781
20.37327003 -1.561388016 -6.178733826
20.37601089 -1.624493957 -6.181064129
20.29071999 -1.868535042 -6.161552906
20.27916908 -1.930233002 -6.159805775
20.28933907 -1.994030952 -6.164755821
21.56152916 -1.25552702 -6.673548222
21.62524986 -1.325821996 -6.694625854
20.87641907 -1.408525944 -6.463953972
20.31665993 -1.433377028 -6.290875912
20.32265091 -1.496472001 -6.294141769
20.33414078 -1.560055971 -6.299189091
20.27786064 -1.618330002 -6.283156872
20.32514 -1.684874058 -6.299485207
20.28562927 -1.744277 -6.288797855
20.25830078 -1.804555058 -6.281970024
20.2184391 -1.863541961 -6.271282196
20.27767944 -1.425184011 -6.403231144
20.14295959 -1.477835059 -6.361828804
19.9948101 -1.528656006 -6.316196918
19.9717598 -1.650213957 -6.311965942
19.91056061 -1.70667696 -6.294136047
19.94890976 -1.771631956 -6.308036804
19.93578911 -1.832128048 -6.305620193
19.94145966 -1.894363046 -6.309246063
19.94503975 -1.956464052 -6.31226778
20.2270298 -1.426833987 -6.508117199
20.27380943 -1.492653012 -6.524713993
19.83456039 -1.58275795 -6.385480881
19.81538963 -1.642423987 -6.380870819
19.78181076 -1.700765014 -6.371650219
19.77839088 -1.761615038 -6.372264862
19.77099991 -1.822111964 -6.371650219
19.73311043 -1.879693985 -6.361199856
19.70546913 -1.938084006 -6.354131222
19.70606041 -1.999202013 -6.356283188
20.23282051 -1.422250032 -6.642945766
20.2302494 -1.484455943 -6.643571854
19.59585953 -1.740450025 -6.442000866
19.51099014 -1.793254972 -6.415709019
19.49309921 -1.851937056 -6.411641121
19.51284981 -1.914237022 -6.420092106
19.46813965 -1.970170021 -6.407258987
20.26967049 -1.430060029 -6.781178951
20.1649704 -1.48485899 -6.747438908
19.9589901 -1.531267047 -6.6796422
19.89749908 -1.587967038 -6.660543919
19.89159012 -1.64892602 -6.660225868
19.68903923 -1.692967057 -6.593701839
20.2292099 -1.428869009 -6.881921768
19.95962906 -1.532968998 -6.792747974
19.88596916 -1.588696957 -6.769163132
19.85176086 -1.647274017 -6.759147167
19.83624077 -1.707278013 -6.755592823
19.91036034 -1.523851037 -6.900415897
19.95078087 -1.588523984 -6.916178226
19.88744926 -1.644901037 -6.895819187
19.69220924 -1.689607978 -6.829487801
15.44388962 34.2884903 -7.700510979
40.62047958 -8.857791901 -3.899642944
40.59300995 -8.869288445 -4.138841152
40.6033287 -8.718355179 -4.407610893
40.88890076 -9.438049316 -5.493859768
40.87602997 -9.313256264 -5.734281063
39.83824921 -9.463318825 -5.599782944
39.95560074 -9.364424706 -5.867943764
39.80244827 -9.457447052 -5.849566936
40.87448883 -8.792020798 -6.239748955
40.0150795 -9.251585007 -6.128818989
39.97880936 -9.37250042 -6.127632141
39.95275116 -9.495796204 -6.12807703
40.88233185 -8.770809174 -6.509027004
39.97320175 -9.478005409 -6.394542217
40.02980042 -9.508823395 -6.639817238
