# .PCD v0.7 - Point Cloud Data file format
VERSION 0.7
FIELDS x y z
SIZE 4 4 4
TYPE F F F
COUNT 1 1 1
WIDTH 56
HEIGHT 1
VIEWPOINT 0 0 0 1 0 0 0
POINTS 56
DATA ascii
10.85863972 27.41445923 -7.843974113
13.83798027 41.8888092 -7.946269989
13.97017002 41.85736084 -7.948407173
14.97309971 30.45525932 -6.945352077
12.36532974 34.2401886 -7.671940804
14.84560013 31.13120079 -7.467752934
24.29953957 -37.10615158 -6.069024086
24.46157074 -38.11442947 -6.197656155
24.38552094 -38.25362015 -6.20815897
24.98694992 -35.71992874 -6.235480785
24.88459015 -35.80699158 -6.237332821
24.68512917 -35.98920822 -6.242603779
24.49879074 -36.19163132 -6.251578808
24.4721508 -36.39228821 -6.273375034
24.38072968 -36.49765015 -6.278645992
24.34690094 -36.69021988 -6.299015999
24.31266975 -36.88373947 -6.31953001
24.33929062 -37.17179871 -6.356284142
24.43182945 -37.56409073 -6.410844803
24.38583946 -38.00151825 -6.460134983
25.41397095 -35.40205002 -6.505564213
25.2816906 -35.44684982 -6.499475002
25.14595032 -35.4863205 -6.492496014
24.99654007 -35.50588989 -6.48195219
24.87501907 -35.56457901 -6.478684902
24.74490929 -35.61067963 -6.473190784
24.61475945 -35.65631866 -6.46769619
24.50915909 -35.73738098 -6.468736172
24.42502022 -35.84999847 -6.475566864
24.36314964 -35.99600983 -6.488485813
24.27577019 -36.10506058 -6.494722843
24.30385971 -36.38740921 -6.532293797
24.29380989 -36.61507034 -6.559915066
24.28421974 -36.8454895 -6.587981224
24.29727936 -37.11259079 -6.622581005
24.9208107 -35.35823822 -6.735369205
24.80257988 -35.42076874 -6.732738972
30.97533989 -27.9084301 -5.962250233
24.73204041 -26.78149986 -6.783115864
24.05061913 -27.02512932 -6.73124218
40.80759048 -8.779771805 -3.651031017
40.65132904 -8.882029533 -4.144842148
40.68207932 -8.735265732 -4.416233063
40.68112183 -8.752558708 -4.666344166
39.82078934 -9.33020401 -5.593235016
39.79391098 -9.452786446 -5.593509197
40.96501923 -8.8088274 -5.992166042
39.85009003 -9.210816383 -5.848143101
39.82743073 -9.334386826 -5.84899807
39.7774086 -9.451498032 -5.845862865
39.94570923 -9.235548019 -6.118127823
39.91526031 -9.35760498 -6.11783123
39.90850067 -9.48527813 -6.121245861
39.99016953 -9.223229408 -6.38804388
39.9636116 -9.346324921 -6.388352871
39.93378067 -9.468659401 -6.388198853
