# .PCD v0.7 - Point Cloud Data file format
VERSION 0.7
FIELDS x y z
SIZE 4 4 4
TYPE F F F
COUNT 1 1 1
WIDTH 135
HEIGHT 1
VIEWPOINT 0 0 0 1 0 0 0
POINTS 135
DATA ascii
14.97926998 31.1597805 -6.856545925
14.75450993 30.72156906 -6.974986076
14.95390034 30.65335083 -6.980226994
14.98217964 30.47372055 -6.949584961
14.78402042 31.51775932 -7.334780216
14.55029011 30.03614998 -7.225074768
14.67811966 30.80237007 -7.612215996
14.60418034 30.15250969 -7.879876137
24.78051949 -38.60686874 -5.724730968
24.39899063 -36.5201416 -6.009277821
24.49618912 -37.65802002 -6.147458076
24.45085907 -38.09775925 -6.194928169
24.39085007 -38.26197052 -6.209524155
24.45833015 -38.89228058 -6.287820816
25.47536087 -35.48297882 -6.248301983
25.29912949 -35.46669006 -6.231635094
24.29984093 -36.6192894 -6.286765099
24.31212044 -36.88291931 -6.319387913
24.44664955 -37.33575821 -6.384490013
24.38703918 -37.49522018 -6.399021149
25.46627998 -35.24617004 -6.491158962
25.33956909 -35.29841995 -6.486406803
25.01901054 -35.30720139 -6.459528923
24.90261078 -35.37247086 -6.457449913
24.78206062 -35.43169022 -6.454330921
24.46105957 -35.66724014 -6.455965042
24.3237896 -35.93787003 -6.477942944
24.31786919 -36.65132904 -6.566449165
24.30327034 -36.87438965 -6.593179226
24.32490921 -37.15478897 -6.630155087
24.30138016 -37.3685112 -6.655103207
24.91427994 -35.11965179 -6.704271793
24.69832039 -35.27185822 -6.704271793
24.58661079 -35.34260178 -6.703343868
24.48199081 -35.4235611 -6.704426765
24.37710953 -35.50419998 -6.705510139
24.28421974 -35.60248947 -6.709996223
24.33060074 -35.90665054 -6.753469944
31.34827042 -29.65254021 -5.650308132
31.29747963 -29.97050095 -5.674355984
30.93120956 -27.86867905 -5.953702927
32.08942032 -26.51003075 -6.211831093
24.22444916 -29.15424919 -6.114117146
24.13552094 -29.22920036 -6.114276886
24.27850914 -29.04140091 -6.343124866
24.71954918 -26.93328094 -6.802431107
28.47382927 5.571499825 -6.818655968
28.42550087 5.288813114 -6.976226807
28.37727928 5.010069847 -6.952644825
25.81007957 14.41098976 -6.947945118
25.85416985 14.33174038 -6.947945118
25.89118958 14.24860001 -6.94610405
40.67321014 -8.7508564 -3.638883114
40.12252045 7.98319912 -3.836569071
40.07355118 7.845719814 -3.829497099
40.1257782 7.728199959 -3.832231998
40.1346283 7.60228014 -3.830816984
40.63216019 -8.860337257 -3.900774956
40.09518051 8.088547707 -4.073730946
40.11103058 7.963755131 -4.072831154
39.8706398 7.788951874 -4.045726776
39.75168991 7.639174938 -4.031125069
39.84532928 7.530488014 -4.038325787
40.67562866 -8.887338638 -4.147342205
40.02013016 8.095761299 -4.332891941
40.07305908 7.978572845 -4.335978985
39.62897873 7.763846874 -4.284887791
39.50421143 7.613632202 -4.268710136
39.48049164 7.483511925 -4.263600826
39.47578049 7.231987 -4.258172989
39.4566803 7.103445053 -4.253702164
39.48220062 6.983053207 -4.254127979
39.49364853 6.860188007 -4.253064156
39.48706055 6.734312057 -4.25008297
40.73591995 -8.616175652 -4.419212818
40.71707916 -8.742781639 -4.420063972
40.07043076 8.088772774 -4.583439827
40.15354156 7.977416992 -4.59017992
40.02861023 7.825024128 -4.572992802
40.13261032 8.105997086 -4.844099998
40.15340042 7.982059956 -4.843626022
39.11698151 5.924859047 -4.931767941
39.84634018 -9.207322121 -5.59282589
39.82271957 -9.330656052 -5.593509197
39.78330994 -9.450267792 -5.592008114
38.77120972 7.707282066 -5.650841236
38.70455933 6.833517075 -5.618217945
38.86680984 6.126717091 -5.62448597
38.90758133 5.888711929 -5.62505579
38.87356949 5.761624813 -5.617506027
39.82934952 -9.334838867 -5.849281788
39.80052948 -9.456989288 -5.849281788
38.58753967 7.545242786 -5.865677834
38.55514908 7.416173935 -5.85721302
38.58549881 7.299324989 -5.858400822
38.60285187 7.180006981 -5.857658863
38.60134888 7.057271957 -5.854094982
38.62282181 6.938811779 -5.854094982
38.68970108 6.828365803 -5.861073971
38.66173935 6.701189995 -5.853650093
38.67335129 6.581051826 -5.852313042
38.692379 6.462210178 -5.852163792
38.71202087 6.343472958 -5.852163792
38.73617935 6.225461006 -5.852907181
38.75704956 6.106898785 -5.853203773
38.78049088 5.988718987 -5.853946209
38.78989029 5.868382931 -5.852610111
38.83314133 5.753118992 -5.856471062
39.97846985 -9.243121147 -6.123177052
39.93933105 -9.363247871 -6.121542931
39.90850067 -9.48527813 -6.121245861
38.57332993 7.68701601 -6.120550156
38.60231018 7.446822166 -6.11776495
38.58129883 7.32007122 -6.110803127
38.58803177 7.198771954 -6.108327866
38.59439087 7.07750082 -6.105852127
38.61592102 6.959062099 -6.105852127
38.63319016 6.839868069 -6.105234146
38.65399933 6.721311092 -6.105234146
38.66275024 6.600696087 -6.103376865
38.69451141 6.484007835 -6.105234146
38.69861984 6.362699986 -6.102757931
38.72576904 6.245203018 -6.1039958
38.74180984 6.125902176 -6.103531837
38.80437088 5.770234108 -6.10476923
40.00268936 -9.22611618 -6.39005518
39.96841812 -9.347449303 -6.389126778
39.94820023 -9.472078323 -6.390520096
38.70074844 6.468650818 -6.330420971
38.71847153 6.349568844 -6.330101013
38.73289108 6.229969025 -6.329299927
38.76839828 6.113721848 -6.332024097
38.79380035 5.995809078 -6.333145142
38.79346848 5.873956203 -6.330101013
38.81716919 5.75578022 -6.33106184
