# .PCD v0.7 - Point Cloud Data file format
VERSION 0.7
FIELDS x y z
SIZE 4 4 4
TYPE F F F
COUNT 1 1 1
WIDTH 59
HEIGHT 1
VIEWPOINT 0 0 0 1 0 0 0
POINTS 59
DATA ascii
10.63805962 27.82774925 -7.742093086
14.97570038 30.46054077 -6.94656086
14.59459972 30.12760925 -7.247193813
31.92687035 -46.53527832 -7.051156998
25.03064919 -32.90217972 -6.671863079
24.50094986 -33.03956985 -6.638054848
24.36024094 -33.06134033 -6.627319813
24.28668022 -33.17414856 -6.635011196
24.14588928 -33.19501877 -6.624275208
24.07888985 8.289729118 -6.768875122
24.13254929 8.22548008 -6.776882172
24.09543037 8.130399704 -6.759316921
24.00284004 8.344009399 -6.911385059
24.03561974 8.272841454 -6.913496017
24.03259087 8.189416885 -6.905315876
24.05668068 8.115338326 -6.905052185
24.1006794 8.047912598 -6.910593033
24.22233009 8.006025314 -6.938563824
24.18353081 7.910978794 -6.920355797
24.12693024 7.810602188 -6.897136211
23.93400955 8.990362167 -7.112232208
23.90574074 8.481005669 -7.055922985
23.92437935 8.405071259 -7.053767204
23.94005013 8.328152657 -7.050804138
23.96458054 8.25435257 -7.050533772
23.99526024 8.182656288 -7.052151203
24.00564957 8.104073524 -7.047840118
24.01213074 8.024283409 -7.042450905
24.11582947 7.894771099 -7.058617115
23.7604599 8.830657005 -7.208683014
23.85601044 8.782963753 -7.229579926
23.8792305 8.708415031 -7.228479862
23.85157967 8.615516663 -7.211981773
23.9005394 8.550396919 -7.218855858
23.90036964 8.467720032 -7.210883141
23.93168068 8.396264076 -7.212532997
23.8574295 8.288098335 -7.182285786
23.93364906 8.232378006 -7.197683811
23.95879936 8.158911705 -7.197683811
24.27140999 7.851994991 -7.25487709
23.85231018 8.134599686 -7.328568935
40.62242889 -8.858216286 -3.89983201
40.63578033 -8.878631592 -4.143240929
40.72193909 -8.743824959 -4.420597076
40.70277023 -8.752438545 -4.926390171
40.80612946 -8.772007942 -5.708773136
39.89410019 -9.347379684 -5.603601933
39.84885025 -9.465836525 -5.601284027
39.8418808 -9.337774277 -5.851133823
39.80823135 -9.458820343 -5.850421906
42.88286972 6.892017841 -6.483585835
39.99002838 -9.245794296 -6.124958992
39.92971039 -9.360990524 -6.12005806
39.90657043 -9.48482132 -6.120948792
40.03541946 -9.23366642 -6.395316124
40.00400925 -9.355774879 -6.394851208
39.97512054 -9.478461266 -6.394851208
40.11721039 -9.269915581 -6.644783974
40.08665848 -9.392499924 -6.644464016
