# .PCD v0.7 - Point Cloud Data file format
VERSION 0.7
FIELDS x y z
SIZE 4 4 4
TYPE F F F
COUNT 1 1 1
WIDTH 118
HEIGHT 1
VIEWPOINT 0 0 0 1 0 0 0
POINTS 118
DATA ascii
13.36301041 38.85836029 -7.650999069
13.48118973 38.81439972 -7.650446892
13.8262701 38.65628052 -7.644009113
13.44661999 38.6852684 -7.86981678
13.58084965 38.68830109 -7.878919125
13.70145035 38.65201187 -7.880055904
13.81997013 38.6097908 -7.880055904
13.93634987 38.5616684 -7.878919125
14.98908997 30.48777962 -6.952809811
14.57371998 30.08452034 -7.236773014
14.65180969 30.01069069 -7.229753971
30.10330963 -45.03580093 -7.103028774
31.22150993 -29.53263092 -5.627305031
30.96871948 -27.90246964 -5.960968018
27.0752697 -25.9428196 -6.283275127
24.38658905 -17.17942047 -5.721351147
24.31373978 -17.23995972 -5.716610909
24.27832031 -17.32702065 -5.720783234
24.29603004 -17.11816025 -5.888698101
24.23940086 -17.18979073 -5.887720108
24.20409966 -17.27659988 -5.892023087
24.16134071 -17.35821915 -5.894566059
24.11512947 -17.43742943 -5.896327019
24.2927494 -16.99069023 -6.061981201
24.24931908 -17.07134056 -6.064198017
24.20722008 -17.15302086 -6.066819191
24.1536808 -17.22662926 -6.066617012
24.05933952 -17.27095032 -6.056135178
24.00069046 -17.34066963 -6.054722786
23.94420052 -17.4119091 -6.053916931
24.11632919 -17.20252991 -6.235432148
24.04516029 -17.26330948 -6.230665207
23.97940063 -17.32782936 -6.227350235
23.93087006 -17.4047699 -6.228592873
24.5542202 -17.18503952 -6.484065056
24.48620987 -17.24959946 -6.480023861
24.28331947 -17.21838951 -6.440038204
24.13335037 -17.22356033 -6.414090157
24.11610031 -17.32316971 -6.423661232
24.20616913 -17.5007 -6.462158203
24.56811905 -17.18453979 -6.683962822
24.4251194 -17.19635963 -6.659235954
24.34836006 -17.25428963 -6.65267086
24.32390976 -17.34930992 -6.660549164
24.23885918 -17.40109062 -6.651795864
24.14897919 -17.44907951 -6.641729832
24.25775909 -17.30726051 -6.828872204
24.20533943 -17.38216019 -6.82909584
24.09029961 -17.41181946 -6.811576843
24.04937935 -17.49481964 -6.815169811
23.86470032 -17.58539963 -6.793159008
24.22183037 -17.28416061 -6.994184017
24.15051079 -17.34534073 -6.988893986
24.0145092 -17.47200966 -6.980381012
29.3137207 9.787755013 -6.506900787
29.33432007 9.694705963 -6.50482893
29.36206055 9.604056358 -6.504415035
29.34765053 9.499769211 -6.494675159
29.35243034 9.401928902 -6.4892869
29.35876083 9.304738998 -6.484313011
29.37129021 9.209648132 -6.480791092
29.37978935 9.113409042 -6.476438999
29.4216404 9.027533531 -6.479547024
29.47821999 8.946034431 -6.485970974
29.25178909 9.859007835 -6.679525852
29.23648071 9.754066467 -6.669105053
29.23564911 9.654211998 -6.66208601
29.25027084 9.559616089 -6.658682823
29.26366043 9.464719772 -6.655066967
29.26836014 9.367152214 -6.64953804
29.26808929 9.268168449 -6.642943859
29.28705978 9.175410271 -6.640817165
29.34374046 8.995821953 -6.641029835
29.38241959 8.909156799 -6.643581867
29.42366028 8.823181152 -6.646771908
29.48806 8.743981361 -6.655280113
29.6386795 8.492666245 -6.671443939
29.09564018 9.815449715 -6.846549988
29.12005997 9.724285126 -6.845236778
29.13863945 9.631224632 -6.842610836
29.14115906 9.532984734 -6.836265087
29.23800087 8.972358704 -6.818977833
29.27191925 8.884599686 -6.820508957
29.3298893 8.804011345 -6.827731133
29.35956001 8.714819908 -6.828386784
29.42736053 8.636797905 -6.838016033
29.47526932 8.55273056 -6.843049049
29.51730919 8.466835022 -6.846767902
29.22223091 8.962978363 -7.005640984
29.26173973 8.779026031 -7.002047062
29.34123993 8.606992722 -7.008336067
29.38622093 8.522362709 -7.012827873
29.45251083 8.443712234 -7.02248621
29.32379913 8.697472572 -7.190416813
24.28964043 46.44664001 -7.832261086
24.4006691 46.31240082 -7.822163105
24.49814034 46.15346909 -7.807907104
40.81599045 -8.900424004 -3.918593884
40.71062851 -8.894983292 -4.150941849
40.77191925 -8.623789787 -4.423151016
40.79478073 -8.777013779 -4.679487228
40.59870148 -8.725296021 -5.17830801
40.2427597 -9.549344063 -5.414265156
39.82754898 -9.331786156 -5.594191074
39.7813797 -9.449810028 -5.591734886
39.79169083 -9.581321716 -5.597328186
39.88190842 -9.218172073 -5.852844238
39.79561996 -9.326933861 -5.844295979
39.74274826 -9.443261147 -5.840734959
42.90835953 7.031225204 -6.490714073
39.93992996 -9.234211922 -6.117237091
39.92681885 -9.360313416 -6.119613171
39.9007988 -9.483448982 -6.12005806
39.98342896 -9.221674919 -6.386960983
39.95687103 -9.344749451 -6.387269974
39.92609024 -9.466835022 -6.386960983
39.99824142 -9.371782303 -6.629723072
39.98754883 -9.498785019 -6.6327672
