# .PCD v0.7 - Point Cloud Data file format
VERSION 0.7
FIELDS x y z
SIZE 4 4 4
TYPE F F F
COUNT 1 1 1
WIDTH 312
HEIGHT 1
VIEWPOINT 0 0 0 1 0 0 0
POINTS 312
DATA ascii
14.86981964 -4.711599827 -4.612174034
14.52120018 -4.793475151 -4.613808155
14.41364002 -4.710478783 -4.673203945
14.32929993 -4.731620789 -4.650344849
14.29568958 -4.769214153 -4.644111156
14.19865036 -4.78529501 -4.617094994
14.27610016 -4.860226154 -4.647377014
14.21129036 -4.737052917 -4.707870007
14.12170982 -4.755383015 -4.682785988
14.04658985 -4.778119087 -4.662539005
12.38726044 34.30091858 -7.685617924
12.48941994 34.25447845 -7.683753014
14.57116985 30.0792408 -7.235496998
14.66895008 30.0458107 -7.238261223
14.60198975 30.16456032 -7.475889206
30.97732925 -28.07938957 -5.718594074
30.96651077 -27.90048027 -5.960540771
30.94992065 -27.20832062 -6.149610043
30.92556 -27.3555603 -6.16148901
30.89245987 -27.49567032 -6.171735764
24.92782974 -26.82790947 -6.814387798
24.49504089 -26.85359001 -6.763064861
24.13079071 -26.94828987 -6.730505943
24.05649948 -27.03174019 -6.732896805
24.46578979 -26.83441925 -6.973342896
24.35170937 -26.8744297 -6.964241982
23.77843094 -1.390635967 -3.977020025
23.58300018 -1.372763991 -4.096666813
23.45282936 -1.43740201 -4.074594021
23.30625916 -1.215994954 -4.1853652
23.21780968 -1.354274035 -4.170760155
23.1074791 -1.418980002 -4.151523113
23.06668091 -1.487521052 -4.144933224
22.94227982 -1.620908022 -4.124094009
22.98135948 -1.694545031 -4.132109165
22.90834999 -1.759837985 -4.119819164
22.92443085 -1.831838012 -4.123736858
22.8941803 -1.900123954 -4.119284153
23.04737091 -1.200227022 -4.279905796
22.91109085 -1.263620019 -4.255073071
22.75304031 -1.324931026 -4.226191998
22.49337006 -1.448343039 -4.17910099
22.46038055 -1.515424967 -4.173766136
22.39974022 -1.580381036 -4.163280964
22.38694954 -1.648517966 -4.161808968
22.38275909 -1.717267036 -4.16199398
22.32546043 -1.781782985 -4.152244091
22.2199707 -1.841984034 -4.133481026
22.27885056 -1.915704012 -4.145621777
22.24642944 -1.981690049 -4.140655041
22.24905968 -2.050744057 -4.142311096
22.24852943 -2.119553089 -4.143414021
22.26539993 -2.190109968 -4.147829056
22.29183006 -2.261782885 -4.154084206
22.24275017 -2.32576704 -4.146173
22.26189041 -2.396836996 -4.151140213
22.24954987 -2.46458292 -4.150219917
22.26044083 -2.534945965 -4.153716087
22.27207947 -2.605511904 -4.157393932
22.28154945 -2.675940037 -4.160706043
22.29567909 -2.747051001 -4.164937019
22.29787064 -2.816796064 -4.166959763
22.30569077 -2.887336016 -4.170086861
22.31524086 -2.958209991 -4.173583031
22.32164955 -3.028774023 -4.17652607
22.3171196 -3.09791708 -4.177444935
22.32794952 -3.169271946 -4.181307793
22.32493019 -3.238745928 -4.182596207
22.32364082 -3.308520079 -4.184250832
22.33282089 -3.379934072 -4.187931061
23.05715942 -1.206555009 -4.419491768
22.76708984 -1.261430979 -4.364126205
22.49748039 -1.31574297 -4.312742233
22.36495972 -1.376857042 -4.287902832
22.26362991 -1.439196944 -4.269132137
22.07102013 -1.494758964 -4.232727051
22.06339073 -1.562257051 -4.232158184
22.06829071 -1.630661964 -4.234054089
22.0876503 -1.700242996 -4.23879385
22.08918953 -1.768547058 -4.240120888
22.11104965 -1.838585019 -4.245429993
22.11411095 -1.907171011 -4.24713707
22.12184906 -1.976230025 -4.249792099
22.13035011 -2.045444965 -4.252635002
22.13471985 -2.114356995 -4.254721165
22.16036987 -2.185435057 -4.260978222
22.17602921 -2.255697012 -4.265338898
22.18268013 -2.325154066 -4.267993927
22.20082092 -2.395936966 -4.272923946
22.20702934 -2.465553999 -4.275578022
22.21594048 -2.535564899 -4.278801918
22.23146057 -2.606453896 -4.283351898
22.24382973 -2.677109957 -4.287333965
22.24916077 -2.747025013 -4.289988995
22.25913048 -2.817614079 -4.293591022
22.26110077 -2.887279987 -4.295677185
22.27355003 -2.958405972 -4.299849033
22.26630974 -3.026990891 -4.300228119
22.25595093 -3.095153093 -4.300037861
22.27745056 -3.167841911 -4.306106091
22.30455017 -3.241539001 -4.3133111
22.27993011 -3.307790041 -4.310466766
22.27939034 -3.377599955 -4.312363148
22.27861977 -3.447438002 -4.314259052
22.48900032 -1.317008018 -4.453944206
22.37523079 -1.379245043 -4.432035923
22.01564026 -1.424911022 -4.361032009
22.00235939 -1.491850972 -4.359272003
22.01919937 -1.560870051 -4.363574982
22.04071999 -1.630368948 -4.368855953
21.97987938 -1.693688989 -4.357707024
22.04692078 -1.76690805 -4.372180939
22.05995941 -1.836084008 -4.375897884
22.07375908 -1.905439973 -4.379809856
22.08344078 -1.974549055 -4.382939816
22.09486008 -2.043915987 -4.386460781
22.10606003 -2.113370895 -4.389980793
22.11898994 -2.183106899 -4.393894196
22.13364983 -2.253140926 -4.398197174
22.14418983 -2.322875977 -4.40171814
22.15743065 -2.393013 -4.405826092
22.17240906 -2.463469028 -4.410324097
22.18033028 -2.533261061 -4.413454056
22.18511963 -2.602782011 -4.415997028
22.1945591 -2.672943115 -4.419517994
22.20668983 -2.743546009 -4.423624992
22.21081924 -2.813263893 -4.426167965
22.21958923 -2.883662939 -4.429688931
22.22133064 -2.953238964 -4.431840897
22.3776207 -1.232434034 -4.573233128
22.35710907 -1.300114036 -4.569806099
22.26502991 -1.363306999 -4.551661968
22.00563049 -1.415187955 -4.499046803
21.97381973 -1.480849028 -4.493402958
21.98969078 -1.549703002 -4.497635841
21.99949074 -1.618237972 -4.500659943
21.96706963 -1.683627009 -4.495016098
22.02038956 -1.755686998 -4.507111073
22.04515076 -1.825744033 -4.513360023
22.05505943 -1.894711018 -4.516585827
22.06377983 -1.963668942 -4.519608974
22.31941986 -1.230978012 -4.695515156
22.20615959 -1.293076038 -4.672305107
22.12792015 -1.49298799 -4.65842104
22.07444 -1.557425022 -4.648058891
22.01472092 -1.689023972 -4.637491226
22.03869057 -1.758892059 -4.643706799
22.04977036 -1.827872038 -4.647230148
22.05574989 -1.896517038 -4.649716854
22.06151962 -1.965216041 -4.652204037
22.22312927 -1.299703002 -4.805945873
22.12248039 -1.361933947 -4.784890175
22.06262016 -1.426205993 -4.772767067
22.03590965 -1.56031096 -4.768939018
21.99885941 -1.625534058 -4.761919022
21.9879303 -1.692567945 -4.760643005
22.05373001 -1.765709043 -4.776169777
22.05891991 -1.834251046 -4.778510094
22.08045006 -1.90426898 -4.784464836
22.0852108 -1.972957969 -4.786804199
22.16341019 -1.290199995 -4.93905592
22.08532906 -1.353657007 -4.922426224
22.04600906 -1.419152975 -4.91454792
22.02499962 -1.48566699 -4.910828114
22.00769043 -1.552340031 -4.907982826
22.28903961 -1.231449962 -5.105657101
22.08945084 -1.35641396 -5.061408997
22.05796051 -1.422420025 -5.055119991
22.03307915 -1.488705039 -5.050403118
22.01284981 -1.555194974 -5.046809196
22.12783051 -1.292386055 -5.199797153
22.11696053 -1.359848976 -5.198185921
22.09325981 -1.426442027 -5.193584919
22.06838989 -1.492836952 -5.188754082
22.04527092 -1.55922997 -5.184382915
22.02969933 -1.626067996 -5.181852818
18.84649086 -4.111709118 -4.519999981
18.75587082 -4.152258873 -4.501135826
18.67563057 -4.194637775 -4.484801769
23.96273041 -1.106536031 -5.781088829
22.18461037 -1.297451019 -5.352602005
22.19313049 -1.366281986 -5.355668068
22.07925034 -1.427281022 -5.329020977
22.05828094 -1.493896961 -5.325012207
22.04100037 -1.560670972 -5.321946144
22.02253914 -1.627282023 -5.318645
21.99708939 -1.693272948 -5.313692093
18.7213192 -4.146257877 -4.613069057
18.52551079 -4.16256094 -4.567555904
18.4444294 -4.203829765 -4.550577164
18.28089905 -4.225601196 -4.513081074
18.20824051 -4.267696857 -4.498223782
22.08509064 -1.361376047 -5.460380077
22.0546608 -1.427433968 -5.453866005
22.04727936 -1.494894028 -5.45314312
22.01645088 -1.560675025 -5.446629047
21.98059082 -1.625923991 -5.438910007
18.17226028 -4.202120781 -4.596484184
17.8408699 -4.183214188 -4.515183926
17.96673965 -4.270913124 -4.550646782
17.88373947 -4.309195995 -4.532794952
17.82328987 -4.352533817 -4.52073288
23.93446922 -1.023830056 -6.070651054
22.18054962 -1.289837956 -5.627232075
22.11749077 -1.354264975 -5.612154007
21.97261047 -1.616260052 -5.579774857
17.60198975 -4.290419102 -4.581215858
17.51066017 -4.325110912 -4.560700893
17.44561005 -4.365870953 -4.54710722
23.83492088 -1.025547981 -6.191755772
22.29880905 -1.165132046 -5.792672157
22.23040962 -1.229956031 -5.775737762
22.19948959 -1.29657197 -5.768661022
22.13069916 -1.360694051 -5.751727104
22.12352943 -1.428395987 -5.750967979
22.03804016 -1.62668395 -5.732264996
17.15099907 -4.35285902 -4.582024097
17.02980042 -4.377752781 -4.552958012
17.01910019 -4.430709839 -4.553716183
23.45023918 -1.074681997 -6.236491203
23.49604034 -1.14902699 -6.249664783
22.27392006 -1.157791018 -5.923415184
22.15353966 -1.219696999 -5.892158985
22.20080948 -1.290627956 -5.905849934
22.22953033 -1.360738993 -5.914631844
22.10474014 -1.42118597 -5.882342815
22.05208969 -1.48574996 -5.869428158
22.03874969 -1.552786946 -5.8671031
22.03581047 -1.620535016 -5.867619991
22.03265953 -1.688279986 -5.868135929
22.00041008 -1.753718019 -5.860902786
16.95546913 -4.353928089 -4.64037323
16.78121948 -4.364109039 -4.595942974
16.75093079 -4.41114378 -4.591293812
16.64118004 -4.436882019 -4.564686775
16.59203911 -4.478351116 -4.554872036
23.45603943 -1.076748013 -6.383111
23.46417999 -1.149270058 -6.386277199
23.49136925 -1.222854972 -6.394721985
22.13532066 -1.220438004 -6.024242878
22.17865944 -1.291087031 -6.037172794
22.19384956 -1.360303044 -6.042450905
22.04133034 -1.418851972 -6.001813889
22.02725029 -1.485818028 -5.999176025
22.01291084 -1.620592952 -5.99785614
21.98620987 -1.754328012 -5.99337101
16.57198906 -4.420013905 -4.651576042
16.44101906 -4.439163208 -4.618328094
16.34358025 -4.466702938 -4.59457922
23.45262909 -1.071189046 -6.527582169
23.47521019 -1.144402981 -6.534855843
23.49177933 -1.217465997 -6.540513992
22.1282692 -1.214817047 -6.159549236
22.10618019 -1.281640053 -6.154429913
22.10117912 -1.34939599 -6.154160023
22.07386971 -1.415714979 -6.147694111
22.07917976 -1.552145004 -6.151734829
22.09947968 -1.758118033 -6.161704063
22.09832001 -1.154652953 -6.287820816
22.09468079 -1.222444057 -6.287820816
22.09177971 -1.290279984 -6.288095951
21.98502922 -1.351734996 -6.258675098
22.00189018 -1.420541048 -6.264723778
22.00702095 -1.488684058 -6.267474174
21.99084091 -1.555379987 -6.264173985
21.98501015 -1.622768998 -6.263898849
21.96842957 -1.689324975 -6.260599136
21.98996925 -1.758862019 -6.268299103
21.99596977 -1.827273965 -6.271597862
21.9787693 -1.893756986 -6.268299103
22.26896095 -1.153638959 -6.479833126
22.03819084 -1.209491968 -6.413314819
22.08227921 -1.27987504 -6.427348137
21.77552032 -1.329143047 -6.338656902
21.84126091 -1.40042603 -6.359146118
21.71427917 -1.459192038 -6.323221207
21.66662025 -1.522776008 -6.310591221
21.62643051 -1.586644053 -6.300206184
21.63006973 -1.653643012 -6.302731991
21.5540905 -1.714365959 -6.281962872
21.5324707 -1.779140949 -6.277191162
21.58333015 -1.850028992 -6.293750763
22.31998062 -1.16584003 -6.626311779
22.07710075 -1.221093059 -6.554849148
21.96515083 -1.282513022 -6.522546768
21.68372917 -1.332859993 -6.439649105
21.55563927 -1.457808018 -6.403916836
22.09664917 -1.216945052 -6.695328236
21.98488998 -1.278449059 -6.66242218
21.81624031 -1.402999043 -6.613500118
22.00005913 -1.213358998 -6.808922768
21.95046997 -1.278182983 -6.794672012
21.67194939 -1.328685999 -6.709173203
21.70874977 -1.397807002 -6.721938133
21.80961037 -1.264075994 -6.884642124
21.68670082 -1.323724031 -6.846866131
40.67028046 -8.750227928 -3.638618946
40.60491943 -8.854398727 -3.898134947
40.5638504 -8.862916946 -4.135839939
40.88916016 -8.792516708 -4.949123859
39.83911896 -9.334497452 -5.595828056
39.82474899 -9.460113525 -5.597874165
39.78591156 -9.579930305 -5.59650898
39.87945938 -9.346583366 -5.85668993
39.84096909 -9.466599464 -5.855266094
40.87836075 -8.792852402 -6.240343094
39.9977417 -9.24757576 -6.126146793
39.93259048 -9.361667633 -6.120502949
39.89503098 -9.482077599 -6.119166851
40.88619995 -8.771637917 -6.509645939
39.98381042 -9.351049423 -6.391602993
39.95685959 -9.47413063 -6.391911983
