# .PCD v0.7 - Point Cloud Data file format
VERSION 0.7
FIELDS x y z
SIZE 4 4 4
TYPE F F F
COUNT 1 1 1
WIDTH 235
HEIGHT 1
VIEWPOINT 0 0 0 1 0 0 0
POINTS 235
DATA ascii
14.92907047 3.988595009 -5.330470085
14.86087036 3.921560049 -5.3015728
14.86003017 3.872612953 -5.296976089
14.81970024 3.813584089 -5.278257847
14.79563046 3.759026051 -5.265451908
14.77044964 3.704421997 -5.252316952
14.80741978 3.665446997 -5.261510849
14.7681303 3.607669115 -5.243451118
14.78555012 3.563894033 -5.245748997
14.78814983 3.516547918 -5.242794037
14.93089962 4.086317062 -5.439986229
14.87602997 4.022287846 -5.41528511
14.8118 3.956202984 -5.387245178
14.71358013 3.881654978 -5.34685421
14.67615986 3.823667049 -5.328828812
14.57369995 3.749274015 -5.287103176
14.58605003 3.704777002 -5.287436008
14.56443024 3.651760101 -5.275420189
14.5453701 3.599589109 -5.26440382
14.55451012 3.554501057 -5.263735771
14.53876972 3.503428936 -5.254055977
14.94789982 4.089463234 -5.540520191
14.77600002 3.993756056 -5.47172308
14.72091961 3.930447102 -5.446643829
14.67378044 3.869673014 -5.42461586
14.56630993 3.793577909 -5.380218983
14.51865005 3.733642101 -5.358191013
14.43247032 3.664310932 -5.321928978
14.40165997 3.609496117 -5.306338787
14.32499027 3.543608904 -5.273804188
14.26801968 3.160068989 -5.222290993
14.27947998 3.116682053 -5.222969055
14.29174042 3.073451996 -5.223986149
14.28085041 3.02530098 -5.216529846
14.88745022 4.074216843 -5.612504959
14.7965498 4.000582218 -5.573289871
14.65816021 3.914943933 -5.516189098
14.61108971 3.854386091 -5.493828773
14.53289032 3.786103964 -5.459774017
14.43076992 3.712255001 -5.41677618
14.37020016 3.649703026 -5.389601231
14.28934002 3.582532883 -5.354857922
14.20547009 3.515217066 -5.319084167
14.87734032 4.072735786 -5.700488091
14.77667999 3.996481895 -5.656876087
14.625 3.907332897 -5.593725204
14.56896019 3.844506979 -5.567557812
14.49090958 3.776386976 -5.533017159
14.36538029 3.696635008 -5.480332851
14.29127979 3.630846977 -5.447535992
14.1969099 3.560530901 -5.407063961
14.15135956 3.502993107 -5.385431767
13.9931097 3.372819901 -5.316699028
13.9249897 3.31122303 -5.28669405
13.90223026 3.260778904 -5.274134159
13.88477993 3.211774111 -5.263667107
13.89274025 3.168744087 -5.262969017
13.87771034 3.12055397 -5.253549099
13.86435032 3.072890997 -5.24482584
13.86180973 3.027740955 -5.240290165
13.89834976 1.329854965 -5.155857086
14.61293983 3.90583396 -5.685532093
14.51815033 3.832823992 -5.643744946
14.33580971 3.69075799 -5.56335783
14.21926022 3.614284992 -5.513425827
14.13140965 3.545842886 -5.474825859
13.82448959 3.289071083 -5.338840961
13.76167965 3.229554892 -5.310511112
13.69589996 3.169823885 -5.281117916
13.69734955 3.125917912 -5.277931213
13.64939022 3.070952892 -5.255620956
13.63136005 3.022990942 -5.244997025
14.09385967 3.537583113 -5.553147793
13.65314007 3.205180883 -5.35802412
13.59654045 3.147914886 -5.331790924
13.55609989 3.094763994 -5.312026978
13.51817989 3.04250598 -5.29334116
12.39657021 34.32667923 -7.691421032
24.49143982 -36.65853119 -6.032194138
24.49420929 -38.16529083 -6.205976963
24.37033081 -38.48979187 -6.234486103
24.3386097 -38.70190811 -6.256856918
25.82716942 -35.28295135 -6.254713058
25.31464958 -35.4884491 -6.235480785
24.43553925 -36.09819031 -6.235339165
24.38985062 -36.26990891 -6.252149105
24.38018036 -36.49682999 -6.278502941
24.34033966 -36.68032074 -6.297307014
24.32411003 -36.90110016 -6.322522163
24.30295944 -37.11632156 -6.346738815
24.32226944 -37.39564896 -6.38192606
24.40992928 -37.78353119 -6.435632229
24.42325974 -38.05982971 -6.470107079
25.46106911 -35.23894882 -6.489822865
25.29804993 -35.24058914 -6.47571516
25.15535927 -35.26972961 -6.466804981
25.01557922 -35.30236053 -6.458638191
24.85648918 -35.30696869 -6.445421219
24.74579048 -35.37982178 -6.44482708
24.62302017 -35.4352684 -6.441114902
24.40568924 -35.5865097 -6.441263199
24.3315506 -35.94932938 -6.480021954
24.25259972 -36.07059097 -6.488485813
24.25007057 -36.54914856 -6.548035145
24.28803062 -36.85126877 -6.589021206
24.28264999 -37.09024811 -6.618572235
24.32402039 -37.40333176 -6.661340237
24.93143082 -35.14382935 -6.708912849
24.8115406 -35.20318985 -6.705665112
24.68132019 -35.24758148 -6.699631214
24.56459999 -35.31097031 -6.697309971
24.46795082 -35.4032402 -6.700559139
24.3458004 -35.45859146 -6.696846008
31.22583008 -29.53672028 -5.628087997
31.21190071 -29.70550919 -5.642074108
31.18577957 -29.86352921 -5.653966904
31.13042068 -29.99415016 -5.660633087
24.35479927 -28.95167923 -6.339799881
27.41795921 -27.91806984 -6.811467171
24.7233696 -26.77210999 -6.780725002
24.25415039 -26.91939926 -6.741910934
24.10915947 -26.92411995 -6.724435806
24.02383041 -26.99501991 -6.723700047
23.95165062 -28.99621964 -6.999258995
24.46578979 -26.83441925 -6.973342896
24.36819077 -26.89262009 -6.96898222
15.99260998 4.59139204 -5.23370409
16.01487923 4.54464817 -5.236423016
15.99995041 4.748723984 -5.349381924
15.93227005 4.675492764 -5.321720123
15.92551994 4.620491982 -5.314651012
15.88656998 4.556390762 -5.296823978
15.88856983 4.504255772 -5.292829037
15.85375023 4.441878796 -5.276538849
15.83611965 4.38458395 -5.266088009
15.82287979 4.32869482 -5.257174969
15.85445976 4.285098076 -5.263321877
15.81881046 4.223423004 -5.247033119
15.83261013 4.175115108 -5.247340202
15.82876968 4.122202873 -5.241806984
15.81000996 4.065561771 -5.231358051
15.84084988 4.021722794 -5.237504005
15.99314976 4.804851055 -5.462005138
15.91495037 4.728178978 -5.430078983
15.87561035 4.66354084 -5.411612034
15.80138016 4.58912611 -5.381250858
15.73869991 4.518616199 -5.354959011
15.51735973 4.19854784 -5.256364822
15.5613699 4.159257889 -5.267006874
15.56579018 4.109315872 -5.264190197
15.58108044 4.062260151 -5.265129089
15.54563999 4.002129078 -5.248853207
16.03528976 4.866565228 -5.585017204
15.93120003 4.781649113 -5.543320179
15.8867197 4.715219021 -5.522630215
15.78831959 4.633358002 -5.483160973
15.66588974 4.545279026 -5.435417175
15.4414196 4.326479912 -5.342792988
15.37057018 4.255815983 -5.313508987
15.35429001 4.200634003 -5.303322792
15.32409954 4.14188385 -5.28836298
15.30284023 4.085803986 -5.276587009
15.29881001 4.034484863 -5.270856857
15.80644035 4.689835072 -5.587293148
15.67636967 4.598957062 -5.53592205
15.62133026 4.530805111 -5.511366844
15.40118027 4.364675999 -5.423486233
15.32427979 4.292133808 -5.391499996
15.24524975 4.219601154 -5.358868122
15.17506027 4.150088787 -5.329465866
15.12833977 4.087467194 -5.308465004
15.09051991 4.027610779 -5.29069519
15.77486992 4.737609863 -5.684453964
15.79384995 4.690536022 -5.686096191
15.65320015 4.596539974 -5.629944801
15.58378029 4.524260998 -5.599733829
15.44404984 4.381113052 -5.539313793
15.30189991 4.290097237 -5.483161926
15.16571045 4.201759815 -5.429308891
15.0482502 4.119538784 -5.382351875
15.03164005 4.065458775 -5.371843815
15.81834984 4.749341011 -5.806839943
15.75422001 4.677453041 -5.777799129
15.53909969 4.510036945 -5.688004971
15.48128033 4.441810131 -5.661633968
15.34792042 4.352640152 -5.60755682
15.24682999 4.273486137 -5.565497875
15.10997963 4.185183048 -5.510418892
15.82164001 4.748770237 -5.908567905
15.79193974 4.687090874 -5.891962051
15.60042 4.578221798 -5.81469202
15.46891975 4.488134861 -5.760128975
15.39579964 4.415757179 -5.727593899
15.30970001 4.340278149 -5.69031477
15.19067955 4.256231785 -5.640834808
15.05677986 4.168941021 -5.585933208
16.04603004 4.871306896 -6.101311207
15.82798004 4.752118111 -6.012217999
15.77857971 4.684559822 -5.987794876
15.5532198 4.565772057 -5.896295071
15.46977043 4.489766121 -5.859144211
15.44556046 4.431406975 -5.844696999
15.31906033 4.344288826 -5.791378021
15.14245033 4.24405098 -5.719141006
15.04681015 4.167496204 -5.677863121
15.69917965 4.66241312 -6.054969788
15.61180973 4.584382057 -6.015543938
15.55109978 4.514771938 -5.986586094
15.36940956 4.410926819 -5.91087389
15.25304031 4.326914787 -5.860632896
15.19044971 4.258841991 -5.831326008
15.06346035 4.173423767 -5.777245998
15.31252956 4.396294117 -5.990436077
15.22877979 4.32172823 -5.952189922
15.14560986 4.247971058 -5.914299011
15.08251953 4.231602192 -5.989752769
17.8472805 43.83898926 -7.644433022
17.97944069 43.77854919 -7.643470764
40.69657898 -8.755885124 -3.640995979
40.63798904 -8.861609459 -3.901340008
40.64939117 -8.881605148 -4.144640923
40.72132874 -8.613088608 -4.417615891
40.68111038 -8.735056877 -4.416125774
39.8651619 -9.340600014 -5.599510193
39.82957077 -9.461257935 -5.598556042
39.87368011 -9.345228195 -5.855834961
39.82170868 -9.462022781 -5.852416992
40.00930023 -9.250248909 -6.127929211
39.96725082 -9.369792938 -6.125850201
39.93254852 -9.490994453 -6.124958992
39.9715004 -9.629903793 -6.135501862
40.0402298 -9.234775543 -6.396089077
40.01652145 -9.358699799 -6.396862984
39.9885788 -9.481653214 -6.397017002
39.93252945 -9.72754097 -6.397480965
