# .PCD v0.7 - Point Cloud Data file format
VERSION 0.7
FIELDS x y z
SIZE 4 4 4
TYPE F F F
COUNT 1 1 1
WIDTH 83
HEIGHT 1
VIEWPOINT 0 0 0 1 0 0 0
POINTS 83
DATA ascii
14.97612953 30.46141052 -6.946763039
12.3646698 34.23834991 -7.671526909
12.47198963 34.20669174 -7.672976971
14.88022041 31.4713707 -7.334572792
14.51861 30.20659065 -7.255488873
14.58181953 30.10123062 -7.240814209
14.65781021 30.02297974 -7.232730865
24.48428917 -36.64781952 -6.03042078
24.34238052 -36.92390823 -6.051290989
24.40431023 -38.02521896 -6.183061123
24.35091019 -38.19932175 -6.199293137
24.37402916 -38.49565125 -6.235441208
25.6217804 -35.45679855 -6.25756216
25.4690094 -35.47412872 -6.246735096
24.38248062 -36.74382019 -6.308276176
24.32682991 -36.90523148 -6.323234081
24.2796402 -37.08071899 -6.340613842
24.33791924 -37.41970825 -6.3860569
24.42819023 -37.81179047 -6.440474987
24.36285019 -37.96569824 -6.454009056
25.44948006 -35.22291946 -6.486853123
25.3320694 -35.28797913 -6.484477043
25.15133095 -35.26409149 -6.465765953
25.0092907 -35.29347992 -6.45700407
24.90545082 -35.37651062 -6.458191872
24.65236092 -35.47750092 -6.448836803
24.49629974 -35.7186203 -6.46532011
24.37323952 -35.77399063 -6.461756229
24.27556038 -35.86661911 -6.465023041
24.29598999 -36.61837006 -6.560509205
24.29294968 -37.10596848 -6.621394157
24.33481026 -37.41991043 -6.664309978
24.88797951 -35.08258057 -6.697154999
24.82803917 -35.22660828 -6.710151196
24.69152069 -35.26214981 -6.702414989
24.57531929 -35.32638168 -6.700250149
24.4713192 -35.40811157 -6.701488018
24.36761093 -35.49034882 -6.702879906
24.27976036 -35.59595871 -6.708758831
24.22032928 -35.98112869 -6.753469944
31.21800041 -29.89439011 -5.659849167
30.98195076 -27.91439056 -5.963531971
27.37379074 -27.87309074 -6.800430775
24.44680977 -26.97234917 -6.550201893
24.76137924 -26.81327057 -6.791210175
24.08068085 -27.05890083 -6.739704132
34.39929962 6.081877232 -6.498360157
34.48731995 5.879446983 -6.508109093
34.49744034 5.772315979 -6.506637096
34.58073044 5.568347931 -6.515834808
15.64498043 28.83428001 -7.10107708
40.8543396 -8.789829254 -3.655256033
40.68341064 -8.889038086 -4.148141861
42.93611145 7.865818977 -4.634748936
42.93851089 7.730179787 -4.632407188
42.96496964 7.598928928 -4.632727146
42.97436142 7.464696884 -4.63123703
42.97254944 7.328639984 -4.628574848
40.70285034 -8.609178543 -4.415594101
42.91165924 6.489816189 -4.868436813
42.95594025 6.361773014 -4.871244907
40.84315109 -8.777826309 -5.209716797
42.48450089 8.052832603 -5.662200928
42.50024033 7.920820236 -5.661025047
42.6531105 6.46862793 -5.649001122
42.68550873 6.339632988 -5.650700092
42.70082855 6.208075047 -5.650177002
40.1131897 -9.258975983 -5.388908863
42.62942886 6.454742908 -5.898378849
42.69667053 6.197177887 -5.902334213
39.8816185 -9.473621368 -5.605922222
42.67895889 6.191924095 -6.168384075
39.89348984 -9.22084713 -5.854553223
39.84766006 -9.339129448 -5.851988792
39.82460022 -9.462709427 -5.852844238
40.81745148 -8.779752731 -6.230988026
39.94763947 -9.235993385 -6.118423939
39.92103958 -9.358959198 -6.118721008
39.90753174 -9.485049248 -6.121098042
40.02867889 -9.232111931 -6.394231796
40.00016022 -9.354874611 -6.394231796
39.96934891 -9.477093697 -6.393922806
39.99042892 -9.499469757 -6.633247852
