# .PCD v0.7 - Point Cloud Data file format
VERSION 0.7
FIELDS x y z
SIZE 4 4 4
TYPE F F F
COUNT 1 1 1
WIDTH 226
HEIGHT 1
VIEWPOINT 0 0 0 1 0 0 0
POINTS 226
DATA ascii
8.490045547 -15.87876987 -6.004214764
8.429736137 -15.88296986 -5.995938778
8.36506176 -15.8785696 -5.984479904
8.313672066 -15.89910984 -5.982570171
8.262235641 -15.91950035 -5.980659962
8.212922096 -15.94392967 -5.980341911
8.157494545 -15.95639038 -5.975567818
8.08619976 -15.93737984 -5.959015846
8.051761627 -15.99090004 -5.969839096
8.560424805 -15.78007984 -6.08743906
8.497612953 -15.77960968 -6.0770998
8.428638458 -15.76721001 -6.062238216
8.352277756 -15.74032974 -6.041882992
8.296450615 -15.75164986 -6.036390781
8.234054565 -15.75018978 -6.026051998
8.174362183 -15.75354004 -6.017652035
8.098692894 -15.72554016 -5.99729681
8.063331604 -15.77558994 -6.006989002
9.665175438 -16.80784035 -6.698795795
9.605133057 -16.82265091 -6.692884922
9.552079201 -16.84958076 -6.691899776
9.5225811 -16.91831017 -6.707662106
8.400064468 -15.70388031 -6.149757862
8.300456047 -15.63280964 -6.111667156
8.224707603 -15.6055603 -6.090979099
8.129062653 -15.53950024 -6.055187225
8.079608917 -15.56101036 -6.053873062
8.017550468 -15.55801964 -6.043036938
9.679869652 -16.71829033 -6.799248219
9.57075119 -16.64739037 -6.758190155
8.357749939 -15.62804985 -6.234113216
8.276619911 -15.59117031 -6.209076881
8.20721817 -15.5756197 -6.19272089
8.101297379 -15.48962975 -6.148324013
8.019432068 -15.44832039 -6.121953011
7.943941116 -15.41837978 -6.100255966
7.881152153 -15.41246033 -6.088239193
7.801840782 -15.3735199 -6.063203812
7.733440876 -15.35529041 -6.046514034
7.623932838 -15.2541399 -5.99710989
7.588405132 -15.30025959 -6.006123066
7.53768301 -15.31585979 -6.003118992
9.624258995 -16.50843048 -6.841566086
9.42245388 -16.39261055 -6.769041061
9.32781601 -16.34382057 -6.736845016
9.274847031 -16.36745071 -6.734810829
8.32475853 -15.56962967 -6.31796217
8.247844696 -15.54024029 -6.295594215
8.16724205 -15.50304985 -6.270175934
8.09261322 -15.47634029 -6.249165058
7.976621151 -15.36915016 -6.195618153
7.910476208 -15.35674953 -6.180706978
7.80765295 -15.2720499 -6.136649132
7.724579811 -15.22461033 -6.107841969
7.652450085 -15.19781971 -6.087508202
7.575089931 -15.15979004 -6.062767982
7.51099205 -15.14754963 -6.048533916
6.499657154 -15.41751003 -5.985159874
6.459218979 -15.45386982 -5.991599083
6.41753912 -15.48752022 -5.997022152
6.363916874 -15.49234009 -5.991260052
5.992215157 -15.67109966 -6.001766205
9.434920311 -16.41089058 -6.892827034
9.340768814 -16.36310959 -6.860492229
9.280337334 -16.37372017 -6.85292387
9.157759666 -16.27363968 -6.79891777
9.063822746 -16.22296906 -6.76589489
8.401945114 -15.59545994 -6.447707176
8.30623436 -15.53174019 -6.41055584
8.227724075 -15.49909019 -6.386476994
8.1516819 -15.47025967 -6.364118099
8.06893158 -15.42780972 -6.336255074
7.993008137 -15.39748955 -6.313550949
7.876059055 -15.28672028 -6.257825851
7.797486782 -15.24894047 -6.2323699
7.699248791 -15.17148018 -6.190748215
7.62014389 -15.13045979 -6.164260864
7.518694878 -15.04372978 -6.119198799
7.378562927 -14.99269962 -6.079639912
7.308220863 -14.96549034 -6.059344769
7.247941017 -14.95825958 -6.047305107
7.188182831 -14.95166016 -6.035610199
7.135001183 -14.95839024 -6.029417992
7.078230858 -14.9572897 -6.020130157
7.021533966 -14.95598984 -6.0108428
6.967688084 -14.96043015 -6.003962994
6.915061951 -14.96724987 -5.998115063
6.859330177 -14.9670496 -5.989514828
6.81376791 -14.98888016 -5.989860058
6.761960983 -14.99687958 -5.984700203
6.478848934 -15.10499001 -5.979196072
6.440563202 -15.14381027 -5.986763
6.386410236 -15.14533043 -5.979539871
6.348968983 -15.18651009 -5.988140106
6.311696053 -15.22846985 -5.997083187
6.259235859 -15.23386002 -5.991580009
6.22947216 -15.29473972 -6.008090019
6.196931839 -15.34947014 -6.022193909
6.152950764 -15.3762598 -6.025290012
6.114057064 -15.4160099 -6.033545971
6.061923981 -15.4224596 -6.028729916
6.006400108 -15.41998959 -6.020473957
5.957035065 -15.43309021 -6.018410206
5.906303883 -15.44252014 -6.014969826
5.857901096 -15.4579401 -6.01393795
5.833883762 -15.53824997 -6.038362026
9.424699783 -16.38970947 -6.996648788
9.298157692 -16.28507996 -6.939428806
9.222729683 -16.26869011 -6.920239925
9.093701363 -16.15645027 -6.860229015
8.984196663 -16.07710075 -6.814524174
8.868898392 -15.98577023 -6.763933182
8.739323616 -15.86678982 -6.701828957
8.322915077 -15.55967045 -6.52737999
8.232943535 -15.50568008 -6.49388504
8.133330345 -15.43220997 -6.452365875
8.055534363 -15.39896011 -6.42794323
7.961606979 -15.33378029 -6.390262127
7.888336182 -15.30731964 -6.368978977
7.778171062 -15.20796967 -6.317341805
7.689901829 -15.14986992 -6.283150196
7.597002983 -15.08131981 -6.244771004
7.504598141 -15.01235008 -6.206391811
7.43392992 -14.98577976 -6.185807228
7.336589813 -14.90425968 -6.142543793
7.274374962 -14.89301014 -6.1285882
7.202078819 -14.86044025 -6.105908871
7.130457878 -14.82841969 -6.083580017
7.066770077 -14.81215954 -6.0678792
7.000441074 -14.78973007 -6.049736023
6.898875237 -14.80947018 -6.040316105
6.839251995 -14.79994011 -6.027756214
6.788346767 -14.8089304 -6.022871017
6.728915215 -14.79897022 -6.010311127
6.681169033 -14.81441975 -6.008216858
6.63989687 -14.84426022 -6.01205492
6.593564034 -14.86285019 -6.011356831
6.55284214 -14.89416027 -6.015892982
6.509365082 -14.91934013 -6.017986774
6.466167927 -14.94526005 -6.020429134
6.415482044 -14.95382977 -6.015892982
6.376544952 -14.98983002 -6.022521973
6.3166852 -14.97651005 -6.009263992
6.281557083 -15.02175999 -6.019731045
6.232210159 -15.03316975 -6.016591072
6.179289818 -15.03575039 -6.009962082
6.141973019 -15.07633018 -6.01868391
6.103061199 -15.11334991 -6.02601099
6.071990013 -15.17028999 -6.041362762
6.04097414 -15.22803974 -6.057063103
5.997999191 -15.2560997 -6.060901165
5.962055206 -15.30237007 -6.07206583
5.923182011 -15.3415699 -6.080440044
5.882115841 -15.37543011 -6.08671999
5.840231895 -15.40742016 -6.092301846
5.800515175 -15.44544029 -6.100327015
5.761272907 -15.48513031 -6.109048843
8.987707138 -16.08027077 -6.933477879
8.85394001 -15.95565987 -6.867609978
8.719218254 -15.82711029 -6.800325871
8.62709713 -15.77418995 -6.765975952
8.550553322 -15.74880981 -6.743666172
8.425889015 -15.63335991 -6.682755947
8.312159538 -15.53627014 -6.629991055
8.211826324 -15.46257973 -6.58749485
8.127285004 -15.41738033 -6.557394981
8.050466537 -15.38589001 -6.533314228
7.844950199 -15.21969986 -6.441595078
7.758615017 -15.16625977 -6.408660889
7.662944794 -15.09325981 -6.367581844
7.582521915 -15.04903984 -6.338898182
7.402760983 -14.91936016 -6.264531136
7.3292799 -14.88578033 -6.240804195
7.227343082 -14.79308033 -6.192288876
7.178254128 -14.80760002 -6.189102173
7.071994781 -14.70314026 -6.13598299
7.017188072 -14.70450974 -6.127482891
6.778148174 -14.66386986 -6.075071812
6.72961998 -14.67695045 -6.071886063
6.682238102 -14.69242001 -6.069760799
6.610984802 -14.65487957 -6.045680046
6.587759972 -14.72375011 -6.06586504
6.516767979 -14.68575954 -6.04178381
6.464148998 -14.68857002 -6.034701824
6.430648804 -14.73490047 -6.045680046
6.379098892 -14.73997021 -6.039659977
6.349703789 -14.79642963 -6.054886818
6.309403896 -14.82787991 -6.059844971
6.26788187 -14.85665035 -6.063739777
6.132731915 -15.04936981 -6.111546993
6.091784954 -15.08111954 -6.116858959
5.989339828 -15.22966957 -6.154750824
5.961262226 -15.29590034 -6.174228191
5.922391891 -15.33506012 -6.18272686
5.884674072 -15.37761021 -6.192643166
5.859014988 -15.45244026 -6.215661049
5.802372932 -15.44581985 -6.205746174
5.761156082 -15.4802103 -6.212473869
7.576494217 -15.0339098 -6.44037199
7.158528805 -14.7637701 -6.275792122
7.073554993 -14.70324993 -6.24057579
14.95582008 30.42009926 -6.937287807
14.62061977 30.41883087 -7.30674696
14.56264973 30.06164932 -7.231243134
14.65995026 30.02737045 -7.233795166
14.60793972 30.17686081 -7.478951931
34.62192154 -43.53173065 -6.948950768
34.53372955 -43.69535065 -6.958175182
23.85066986 -30.5513401 -6.746455193
31.19486046 -29.50741959 -5.622467995
30.95989037 -27.89451981 -5.959259033
24.05846024 -27.03393936 -6.733448982
40.77838135 -8.773486137 -3.648390055
39.88108063 -9.215352058 -5.597736835
39.8420105 -9.335176468 -5.596237183
39.8305397 -9.461486816 -5.59869194
39.80036163 -9.583408356 -5.598556042
39.90312958 -9.223075867 -5.855978012
39.84669876 -9.338904381 -5.851847172
39.82653046 -9.463167191 -5.85312891
39.9678688 -9.240671158 -6.121542931
39.93259048 -9.361667633 -6.120502949
39.91907883 -9.487792969 -6.122879982
40.00268936 -9.22611618 -6.39005518
39.97612 -9.34924984 -6.390365124
39.94532013 -9.471394539 -6.39005518
