# .PCD v0.7 - Point Cloud Data file format
VERSION 0.7
FIELDS x y z
SIZE 4 4 4
TYPE F F F
COUNT 1 1 1
WIDTH 99
HEIGHT 1
VIEWPOINT 0 0 0 1 0 0 0
POINTS 99
DATA ascii
10.6591301 27.88287926 -7.757510185
11.76686001 40.54880142 -8.382060051
14.99911976 30.9574604 -6.82192421
14.94285011 30.39373016 -6.931240082
12.44820023 34.1414299 -7.65826416
14.52748966 30.22508049 -7.259955883
14.59587002 30.13025093 -7.247831821
14.68052959 30.06952095 -7.244003773
14.75366974 30.96092987 -7.651605129
14.62596989 30.45198059 -7.53628397
14.61048985 30.18213081 -7.480266094
14.64227009 30.01263046 -7.449193001
14.72770023 30.65205002 -7.798741817
24.39254951 -37 -6.063839912
24.45150948 -37.84283066 -6.165463924
24.42786026 -38.06190109 -6.189063072
24.37752914 -38.24108887 -6.206112862
24.44346046 -38.6053009 -6.253310204
24.43828964 -38.86040878 -6.282638073
25.60380936 -35.43193054 -6.253146172
25.2801609 -35.44010162 -6.226933956
25.13010979 -35.45935059 -6.216677189
24.42222023 -36.07852173 -6.231919765
24.37438965 -36.2469101 -6.248159885
24.45935059 -36.61534882 -6.299015999
24.38958931 -36.75455093 -6.310128212
24.34535027 -36.93333054 -6.328077793
24.38809013 -37.24633026 -6.369104862
24.39069939 -38.78993988 -6.556293011
25.41299057 -35.1724205 -6.477497101
25.2870903 -35.22531891 -6.472894192
25.16511917 -35.28340912 -6.469329834
25.03388023 -35.32817841 -6.463389874
24.89520073 -35.36196136 -6.455519199
24.78716087 -35.4389801 -6.455667973
24.43700981 -35.63217926 -6.449578762
24.37991905 -35.78379822 -6.46353817
24.29552078 -35.89609909 -6.470368862
24.27190971 -36.09931183 -6.493683815
24.3492794 -37.19202042 -6.636837006
24.31539917 -37.39007187 -6.658964157
24.90056038 -35.10031128 -6.700559139
24.70059013 -35.27510071 -6.704891205
24.5883007 -35.34503937 -6.703807831
24.37710953 -35.50419998 -6.705510139
24.29200935 -35.6139183 -6.712162018
31.36050987 -29.66411972 -5.652528763
31.32823944 -29.81624031 -5.663247108
30.97092056 -27.90446091 -5.961394787
24.33511925 -28.92828941 -6.334646225
24.23171043 -28.98542023 -6.330821991
27.35239029 -27.85131073 -6.795084953
24.14653015 -26.96586037 -6.734920979
24.06957054 -27.04641914 -6.736577034
24.46578979 -26.83441925 -6.973342896
24.34379005 -26.86569977 -6.961966991
30.18946075 5.425600052 -6.636989117
30.23138046 5.146366119 -6.635499954
30.02655983 5.500154972 -6.80606699
30.05864906 5.410775185 -6.809567928
30.08279991 5.319890022 -6.811318874
30.09897995 5.227572918 -6.811318874
30.10333061 5.133236885 -6.808692932
30.11894035 5.040856838 -6.808692932
26.48144913 13.22161961 -7.31772089
24.62111092 42.82968903 -7.379930973
40.74332047 -8.765942574 -3.645220995
41.23075104 8.335297585 -3.946029902
41.26979065 8.211483955 -3.947350025
41.27817917 8.081579208 -3.945746899
40.95436096 6.850028992 -3.894741058
40.65452957 -8.865215302 -3.902942896
41.26753998 8.325083733 -4.193949223
41.27922058 8.195723534 -4.192547798
41.30709839 8.069615364 -4.192849159
40.90467072 7.860779762 -4.149141788
40.84646988 7.719726086 -4.140740871
40.7965889 7.580739021 -4.133240223
40.60758972 -8.872473717 -4.140340805
41.22277069 8.339010239 -4.464235783
41.28619003 8.220071793 -4.468387127
41.28876877 8.088973045 -4.465939045
40.49169159 7.161564827 -4.363864899
40.62374878 -8.72273922 -4.409845829
41.33185959 8.21150589 -4.725995064
41.3519783 8.083709717 -4.725432873
41.25099182 8.200260162 -4.977066994
40.86585999 -8.787506104 -4.94628191
40.1062088 -9.137851715 -5.625564098
39.91820908 -9.353030205 -5.607013226
39.873909 -9.471790314 -5.604829788
39.96871185 -9.238232613 -5.865664959
39.87081909 -9.47369194 -5.859682083
39.9977417 -9.24757576 -6.126146793
39.94511032 -9.364601135 -6.122434139
39.93447113 -9.491451263 -6.125256062
40.03926849 -9.234554291 -6.395934105
40.01652145 -9.358699799 -6.396862984
39.98281097 -9.480284691 -6.396089077
