# .PCD v0.7 - Point Cloud Data file format
VERSION 0.7
FIELDS x y z
SIZE 4 4 4
TYPE F F F
COUNT 1 1 1
WIDTH 81
HEIGHT 1
VIEWPOINT 0 0 0 1 0 0 0
POINTS 81
DATA ascii
14.8471899 31.4015007 -7.318202019
14.57032013 30.07748032 -7.235071182
14.71805 30.64373016 -7.58398819
23.90704918 -30.62355042 -6.762493134
30.93782997 -27.87463951 -5.954985142
18.71755028 -2.422714949 -6.054766178
18.63139915 -2.290608883 -6.144966125
18.5762291 -2.341696978 -6.129003048
18.54446983 -2.395512104 -6.120864868
18.5200901 -2.450150967 -6.115231991
18.32052994 -2.371411085 -6.161135197
18.29154968 -2.42474103 -6.153813839
18.29342079 -2.482121944 -6.156998158
19.70569992 -1.878906012 -6.716498852
19.26402092 -2.015878916 -6.571106911
18.0714798 -2.397147894 -6.182105064
18.01996994 -2.446595907 -6.166920185
17.98424911 -2.497963905 -6.157227039
20.02667046 -1.842136979 -6.950000763
19.82909966 -1.885342002 -6.883012772
19.27585983 -1.952188015 -6.693871021
19.05841064 -1.989266992 -6.619987011
19.01182938 -2.043390036 -6.605866909
18.94256973 -2.094755888 -6.583866119
17.80905914 -2.413212061 -6.206237793
17.77910995 -2.464726925 -6.198357105
20.06775093 -1.847988963 -7.094666958
19.52334023 -1.858247042 -6.903061867
18.92789078 -1.977484941 -6.69743681
18.8055191 -2.023036003 -6.656044006
18.77017975 -2.077505112 -6.645697117
18.65788078 -2.123032093 -6.60797596
17.62631989 -2.445123911 -6.25981617
17.60474014 -2.49720192 -6.254808903
17.49444962 -2.921191931 -6.239120007
17.48354912 -2.974534988 -6.238451958
17.47713089 -3.028641939 -6.239453793
17.48724937 -3.085688114 -6.246463776
17.47956085 -3.139657021 -6.247130871
17.49117088 -3.197169065 -6.254808903
17.49980927 -3.254264116 -6.2614851
18.85289001 -1.971253991 -6.786324978
18.67650986 -2.010751963 -6.724644184
18.53466034 -2.05302 -6.675504208
18.49555969 -2.106147051 -6.66364193
18.45256042 -2.15861702 -6.650424957
18.21419907 -2.18739295 -6.566377163
18.11401939 -2.231756926 -6.532486916
17.53903008 -2.434571028 -6.33660078
17.50912094 -2.485193968 -6.328467846
18.79739952 -1.963745952 -6.881818771
18.17033958 -2.123967886 -6.659946918
18.04161072 -2.165050983 -6.614884853
17.63762093 -2.336477041 -6.475914001
17.56988907 -2.382378101 -6.453555107
17.49831963 -2.427370071 -6.429820061
17.45825005 -2.476428032 -6.417779922
18.6489296 -2.004407883 -6.940824986
18.35578918 -2.029903889 -6.83336401
18.1382103 -2.118587971 -6.756606102
17.47299004 -2.367697001 -6.522494793
17.42758942 -2.416018009 -6.508190155
17.39133072 -2.465398073 -6.497374058
17.34287071 -2.512831926 -6.482022762
17.25330925 -3.647062063 -6.523191929
17.21729088 -3.694669962 -6.513772011
17.22327995 -3.751262903 -6.520401001
18.00382042 -2.101353884 -6.821574211
17.35878944 -2.350652933 -6.591036797
17.2903595 -2.395422935 -6.567664146
17.22736931 -2.440583944 -6.546417236
17.18555069 -2.488464117 -6.533314228
17.15522957 -3.514918089 -6.58891201
17.15443993 -3.569629908 -6.592806816
17.16353035 -3.62649703 -6.600597858
17.17336082 -3.683649063 -6.608743191
18.63467979 -1.999673963 -7.174513817
15.59745026 28.74667931 -7.079381943
40.76023865 -8.621320724 -4.421874046
39.85174179 -9.466524124 -5.601693153
39.85926819 -9.470946312 -5.857972145
