# .PCD v0.7 - Point Cloud Data file format
VERSION 0.7
FIELDS x y z
SIZE 4 4 4
TYPE F F F
COUNT 1 1 1
WIDTH 1277
HEIGHT 1
VIEWPOINT 0 0 0 1 0 0 0
POINTS 1277
DATA ascii
7.189020157 -18.97557068 -6.267423153
7.1334548 -19.00468063 -6.269797802
7.077112198 -19.03185081 -6.271578789
7.020999908 -19.0597496 -6.273656845
6.959219933 -19.07222939 -6.270689011
7.258305073 -18.96727943 -6.397187233
7.184533119 -18.94845009 -6.383285999
7.124354839 -18.96504974 -6.381473064
7.066470146 -18.98771095 -6.381774902
7.011480808 -19.01824951 -6.384797096
6.949175835 -19.02891922 -6.381169796
6.904706955 -19.08869934 -6.394165039
6.847075939 -19.1124897 -6.395071983
6.79031992 -19.13879013 -6.396884918
7.419909 -19.22739029 -6.615384102
7.30343914 -19.0998497 -6.5634408
7.168262959 -18.92016983 -6.49367094
7.10416317 -18.92604065 -6.488139153
7.047060013 -18.95042038 -6.489059925
6.987243176 -18.96748924 -6.487524033
6.932608128 -18.99867058 -6.490904808
6.879464149 -19.03417015 -6.495821953
6.820074081 -19.05249023 -6.494900227
6.764769077 -19.08230019 -6.497973919
6.718803883 -19.13887978 -6.510268211
7.526105881 -19.13817024 -6.735907078
7.464597225 -19.15409088 -6.733403206
7.230861187 -18.89616013 -6.626357079
7.148952007 -18.85519981 -6.604134083
7.105763912 -18.91617012 -6.617906094
7.053988934 -18.95479012 -6.623853207
6.987919807 -18.95495987 -6.616341114
6.933642864 -18.98700905 -6.62009716
6.865670204 -18.98139954 -6.610706806
6.811565876 -19.01399994 -6.614776134
6.753835201 -19.03660011 -6.615402222
6.704214096 -19.08231926 -6.624166012
6.665918827 -19.16110039 -6.644511223
7.529167175 -18.98897934 -6.817146778
7.447646141 -18.95286942 -6.79582119
7.402880192 -19.01008034 -6.808234215
7.323022842 -18.97698021 -6.788180828
6.995354176 -18.99011993 -6.75348711
6.937059879 -19.01148987 -6.75348711
6.871933937 -19.01395988 -6.746802807
6.809094906 -19.02246094 -6.742346764
6.75672102 -19.06023979 -6.748394012
6.707946777 -19.10860062 -6.758262157
7.509837151 -19.1157093 -6.970126152
7.451156139 -19.13866043 -6.970126152
7.373668194 -19.11286926 -6.952355862
7.307898998 -19.11684036 -6.945570946
7.24887991 -19.13828087 -6.945248127
7.163197041 -19.08867073 -6.91907692
7.084813118 -19.05732918 -6.899692059
7.011593819 -19.03900909 -6.885152817
6.954771996 -19.06488037 -6.886767864
6.887887001 -19.06299019 -6.878367901
6.835110188 -19.10007095 -6.88418293
7.68060112 -19.18840981 -7.143740177
7.385684967 -19.12878036 -7.086932182
7.321900845 -19.13812065 -7.082005978
7.249756813 -19.12516975 -7.068871021
7.186729908 -19.13582039 -7.064601898
7.124364853 -19.14804077 -7.060989857
7.062972069 -19.16271973 -7.058362961
6.990865231 -19.14792061 -7.04489994
6.923734188 -19.14619064 -7.036363125
7.264537811 -19.17020035 -7.217842102
7.186808109 -19.14208984 -7.198813915
7.126074791 -19.15875053 -7.196812153
7.07997179 -19.21501923 -7.209829807
7.019049168 -19.23134041 -7.207828045
6.883759022 -19.22612 -7.18980217
6.814978123 -19.21960068 -7.17945385
6.693515778 -19.25126076 -7.175782204
7.311975002 -19.30013084 -7.39262104
7.22066021 -19.23703003 -7.359746933
7.158000946 -19.24938965 -7.35601902
7.071919918 -19.19798088 -7.327889919
7.013310909 -19.22047043 -7.328228951
6.722600937 -19.34000969 -7.33365202
7.084823132 -19.22750092 -7.464878082
7.000687122 -19.18034935 -7.438045979
6.961284161 -19.25559998 -7.459030151
6.856184006 -19.33511925 -7.473476887
6.822966099 -19.43047905 -7.502371788
6.741734028 -19.38924026 -7.478292942
12.47119045 -7.423686981 -3.75099802
12.46765041 -7.525568962 -3.763887882
12.46187019 -7.574337006 -3.769196033
12.44104958 -7.614048958 -3.769953966
12.4423399 -7.667410851 -3.777537107
12.46541023 -8.219641685 -3.860183954
12.41779041 -6.880955219 -3.755650043
12.4059 -6.924199104 -3.758491993
12.38712978 -6.963646889 -3.759267092
12.39680958 -7.019227982 -3.7688241
12.47418022 -7.895461082 -3.907021999
12.41051006 -6.485621929 -3.790293932
12.34189987 -6.498055935 -3.775254011
12.34490967 -6.548091888 -3.782377958
12.37071037 -6.610478878 -3.796627045
12.4840498 -7.480677128 -3.940965891
12.47424984 -7.52691412 -3.945188046
12.42224979 -7.547620773 -3.935951948
12.41878033 -7.597775936 -3.942285061
12.41594028 -7.648487091 -3.948882103
12.39570045 -7.688576221 -3.949938059
12.44569016 -7.772546768 -3.97368598
12.42220974 -7.864242077 -3.981601954
12.36956024 -7.884172916 -3.972367048
12.3842802 -7.947086811 -3.985033035
12.38496017 -8.001267433 -3.993212938
12.34902954 -8.03186512 -3.989517927
12.40876961 -6.239665031 -3.845196009
12.28649044 -6.225463867 -3.812865019
12.29734993 -6.278459072 -3.82229495
12.38078976 -6.369029999 -3.85462594
12.4526701 -6.454409122 -3.883454084
12.32098961 -6.434175968 -3.848160028
12.39774036 -7.016545773 -3.944883108
12.3401804 -7.034039021 -3.933296919
12.34945011 -7.089608192 -3.943265915
12.36015034 -7.146263123 -3.953773975
12.35813999 -7.195782185 -3.960239887
12.36258984 -7.249251842 -3.968861103
12.36433983 -7.301349163 -3.976675034
12.37166977 -7.356969833 -3.986373901
12.37796021 -7.412209988 -3.995804071
12.38319969 -7.467060089 -4.004963875
12.39068985 -7.523510933 -4.014933109
12.37905025 -7.568523884 -4.018704891
12.38037014 -7.621613979 -4.026788235
12.3732996 -7.669710159 -4.032176018
12.36441994 -7.716813087 -4.037025928
12.37003994 -7.773159027 -4.046724796
12.36647987 -7.823945999 -4.053461075
12.36841011 -7.878407001 -4.062081814
12.35470963 -7.923075199 -4.065585136
12.35947037 -7.979749203 -4.075284004
13.61054039 -5.884490013 -4.200003147
13.51222038 -5.891250134 -4.174981117
13.36557961 -5.876177788 -4.134836197
13.28244972 -5.888319016 -4.114488125
13.21868038 -5.908638 -4.100190163
13.12773991 -5.916374207 -4.077367783
13.02637005 -5.918835163 -4.051246166
12.9766798 -5.944355965 -4.041347027
12.91036987 -5.961968899 -4.026224136
12.85976982 -5.986535072 -4.016049862
12.32192039 -6.061407089 -3.88654089
12.43266964 -6.306548119 -3.946208954
12.40042019 -6.338097095 -3.942084074
12.32878017 -6.349256992 -3.925311089
12.33057022 -6.398122787 -3.932185888
12.35402966 -6.506818771 -3.952533007
12.25588036 -6.503227234 -3.92723608
12.29691982 -6.573432922 -3.947033882
12.29108047 -6.618878841 -3.951708078
12.28678036 -6.665266991 -3.956933022
12.28398991 -6.712614059 -3.962707043
12.29113007 -6.76556921 -3.971781015
12.29133987 -6.814901829 -3.9786551
12.29555035 -6.866642952 -3.986903906
12.29788971 -6.917531967 -3.994602919
12.30338001 -6.970396042 -4.003402233
12.31534004 -7.027170181 -4.014400005
12.33623981 -7.089353085 -4.028423786
12.34438992 -7.144505024 -4.038321972
12.33819008 -7.191543102 -4.043547153
12.34010983 -7.243476868 -4.051520824
12.34928036 -7.299893856 -4.061970234
12.35243988 -7.352993011 -4.070494175
12.36528015 -7.412112236 -4.082316875
12.36800003 -7.465415955 -4.090840816
12.36394024 -7.514811993 -4.097165108
12.36050034 -7.564754009 -4.103765011
12.3617897 -7.617773056 -4.112012863
12.35960007 -7.668841839 -4.119163036
12.3710804 -7.72863102 -4.130986214
12.36522007 -7.77781105 -4.137034893
12.37215996 -7.835258007 -4.147483826
12.36590004 -7.884551048 -4.153532982
12.35702038 -7.932321072 -4.158758163
12.37703991 -7.998898029 -4.173881054
12.41699982 -8.133169174 -4.20440197
13.65816975 -5.798989773 -4.298211098
13.46737957 -5.766819 -4.243199825
13.42759991 -5.798595905 -4.236183167
13.37806034 -5.825969219 -4.226078987
13.30916023 -5.844604015 -4.209799767
13.1990099 -5.844605923 -4.1803298
13.11266041 -5.854553223 -4.158438206
13.0272398 -5.864418983 -4.136826992
12.95586967 -5.880161762 -4.119707108
12.89937019 -5.902311802 -4.107357025
12.82281017 -5.914925098 -4.088551998
12.73322964 -5.921052933 -4.06553793
12.68546009 -5.946240902 -4.055994987
12.59078979 -5.94904995 -4.031295776
12.54648018 -5.975269794 -4.022875786
12.49954033 -6.000028133 -4.013614178
12.43700027 -6.017031193 -3.999300003
12.36240959 -6.027818203 -3.981056929
12.3197403 -6.053864956 -3.973197937
12.24262047 -6.062671185 -3.954113007
12.27892017 -6.127630234 -3.972075939
12.17603016 -6.123015881 -3.944570065
12.16232967 -6.162946224 -3.946254015
12.16473007 -6.211141109 -3.953270912
12.1703701 -6.261166096 -3.961410046
12.26358986 -6.356774807 -3.998457909
12.19631958 -6.417156219 -3.989196062
12.19353962 -6.463532925 -3.994810104
12.27101994 -6.552904129 -4.027085781
12.26521969 -6.598248959 -4.031857014
12.27614975 -6.652767181 -4.042243004
12.27336979 -6.700056076 -4.048136234
12.27799034 -6.751552105 -4.056556225
12.28409004 -6.804069996 -4.06553793
12.28326988 -6.852947235 -4.072274208
12.28896046 -6.905644894 -4.081254959
12.28859997 -6.955132961 -4.088272095
12.3064003 -7.01514101 -4.101462841
12.30978966 -7.06719923 -4.109882832
12.32544041 -7.126550198 -4.122512817
12.32756996 -7.178336143 -4.130651951
12.33530045 -7.23360014 -4.140757084
12.34280014 -7.288980007 -4.150859833
12.34924984 -7.343983173 -4.160684109
12.36207008 -7.403038025 -4.172751904
12.36314011 -7.455303192 -4.180891991
12.36563969 -7.508638859 -4.189591885
12.35647011 -7.555051804 -4.194364071
12.36184025 -7.610537052 -4.204186916
12.37187958 -7.669158936 -4.215693951
12.38899994 -7.732488155 -4.229728222
12.38309956 -7.781694889 -4.235901833
12.38836956 -7.838122845 -4.246006012
12.38045979 -7.886405945 -4.251619816
12.36913013 -7.932641983 -4.256110191
12.36973 -7.986690998 -4.264811039
12.45944023 -8.09887886 -4.304666042
12.41366005 -8.123402596 -4.297369003
13.5402298 -5.707046032 -4.342326164
13.48913956 -5.734315872 -4.33146286
13.41512012 -5.751511097 -4.313169003
13.34990978 -5.772109032 -4.297731876
13.29084969 -5.795041084 -4.284296989
13.19054985 -5.799540997 -4.257427216
13.12275982 -5.817846775 -4.241133213
13.03573036 -5.827190876 -4.218551159
12.94701958 -5.835268021 -4.195395947
12.89591026 -5.859899998 -4.184534073
12.78726006 -5.857936859 -4.154805183
12.72659969 -5.877457142 -4.140798092
12.66246033 -5.895041943 -4.125648022
12.5827198 -5.904963017 -4.105351925
12.53248978 -5.928380013 -4.0947752
12.45715046 -5.939586163 -4.075909138
12.40950966 -5.963665009 -4.066188812
12.31783962 -5.966208935 -4.041892052
12.27536964 -5.992203236 -4.033887863
12.21135044 -6.007420063 -4.018736839
12.16281033 -6.029960155 -4.008731842
12.14768028 -6.06896019 -4.009875774
12.14869022 -6.116108894 -4.016449928
12.15038013 -6.16375494 -4.023311138
12.15872002 -6.214957237 -4.032457829
12.15834045 -6.261880875 -4.038746834
12.16374016 -6.31195116 -4.047037125
12.17829037 -6.366994858 -4.058471203
12.19007015 -6.420848846 -4.069047928
12.21432972 -6.481571198 -4.083911896
12.22819996 -6.537082195 -4.095346928
12.23001957 -6.586379051 -4.102778912
12.25018978 -6.645800114 -4.116499901
12.25329018 -6.696216106 -4.124504089
12.25786972 -6.747639179 -4.133080006
12.26226044 -6.799151897 -4.141654968
12.26811028 -6.851689816 -4.150803089
12.2829504 -6.909494877 -4.163094997
12.29421043 -6.965567112 -4.174242973
12.29442024 -7.01559782 -4.181674957
12.30856991 -7.073812962 -4.193966866
12.31916046 -7.130260944 -4.205114841
12.32205963 -7.182497025 -4.213691235
12.32723999 -7.236272812 -4.223124027
12.3346796 -7.291612148 -4.233415127
12.33942986 -7.345592976 -4.242847919
12.3488903 -7.402627945 -4.253996849
12.35319042 -7.456819057 -4.263430119
12.36219978 -7.514091969 -4.274578094
12.35706997 -7.562986851 -4.2808671
12.36153984 -7.617953777 -4.290585995
12.3633604 -7.671504021 -4.299448013
12.36983013 -7.728181839 -4.310023785
12.38175964 -7.788543224 -4.322601795
12.38047981 -7.840847015 -4.330605984
12.37090969 -7.888065815 -4.33575201
12.36600018 -7.938405037 -4.34261179
12.35608006 -7.985667229 -4.347756863
13.48474979 -5.679066181 -4.412878036
13.43556023 -5.706943035 -4.402394772
13.38720989 -5.734948158 -4.392202854
13.33882046 -5.762711048 -4.382009983
13.24038982 -5.768446922 -4.355219841
13.12804031 -5.767476082 -4.323770046
13.04469013 -5.778658867 -4.301928997
12.95090961 -5.784702778 -4.276595116
12.86332035 -5.792975903 -4.253299236
12.78711987 -5.805909157 -4.233788013
12.72315025 -5.824005127 -4.218354225
12.6644001 -5.84416914 -4.204668045
12.59784031 -5.860394001 -4.188360214
12.53822041 -5.879517078 -4.174383163
12.45785999 -5.888515949 -4.153416157
12.38272953 -5.8995471 -4.134197235
12.32059956 -5.916385174 -4.119345188
12.27482986 -5.940816879 -4.110026836
12.1385603 -5.967057228 -4.076247215
12.12790966 -6.008091927 -4.078867912
12.12569046 -6.053391933 -4.084401131
12.1207304 -6.097445011 -4.08905983
12.12757015 -6.147580147 -4.097795963
12.13335037 -6.197380066 -4.106241226
12.15170956 -6.25383997 -4.119053841
12.15454006 -6.302544117 -4.126626015
12.15295982 -6.349108219 -4.132740021
12.16644001 -6.40374279 -4.144097805
12.17208958 -6.454485893 -4.152832985
12.19863033 -6.516594887 -4.168849945
12.20637989 -6.568953037 -4.178460121
12.21308041 -6.620963097 -4.187777996
12.22461987 -6.675827026 -4.198843956
12.23089981 -6.728056908 -4.208161831
12.23614025 -6.77992487 -4.217189789
12.24452019 -6.833753109 -4.227382183
12.25185013 -6.887228012 -4.23728323
12.2697897 -6.946938992 -4.250968933
12.27915955 -7.002087116 -4.261744022
12.28831959 -7.057355881 -4.272518158
12.29310989 -7.110352993 -4.281836987
12.30595016 -7.168261051 -4.294066906
12.31359959 -7.22341013 -4.304551125
12.31608963 -7.275753021 -4.313286781
12.31097984 -7.323777199 -4.319402218
12.31799984 -7.379212856 -4.329885006
12.31004047 -7.425865173 -4.335126877
12.33298969 -7.491413116 -4.351434231
12.32707977 -7.539699078 -4.357550144
12.34055042 -7.600059986 -4.370654106
12.34644032 -7.656036854 -4.381136894
12.34885979 -7.710093975 -4.390454769
12.34539986 -7.760674 -4.397736073
12.36194038 -7.824097157 -4.412295818
12.36450005 -7.87895298 -4.421905994
12.3636198 -7.93183279 -4.430349827
12.36011982 -7.983222961 -4.437922001
12.37005997 -8.043533325 -4.450442791
13.51245975 -5.692276955 -4.517344952
13.38858986 -5.688519955 -4.481422901
13.31577969 -5.705872059 -4.462719917
13.2333498 -5.718665123 -4.440752029
13.18947983 -5.747791767 -4.431845188
13.07211971 -5.744431019 -4.398001194
13.0011797 -5.760909081 -4.379891872
12.91631985 -5.770772934 -4.357032776
12.80451965 -5.768013 -4.324969769
12.73546982 -5.783969879 -4.307455063
12.66123009 -5.797173977 -4.28815794
12.59136009 -5.81197691 -4.270345211
12.5145998 -5.823184013 -4.250157833
12.44913006 -5.839245796 -4.233829021
12.37504005 -5.850880146 -4.214532852
12.31566048 -5.86909914 -4.200283051
12.24594975 -5.882047176 -4.182469845
12.21065044 -5.91126585 -4.176533222
12.16499996 -5.935299873 -4.167033195
12.12701988 -5.962903023 -4.160203934
12.10867023 -6.000080109 -4.160203934
12.10387993 -6.044025898 -4.164955139
12.10404015 -6.090576172 -4.171485901
12.11596012 -6.143229008 -4.182172775
12.13107014 -6.197750092 -4.194047928
12.14171028 -6.250236034 -4.204439163
12.14622021 -6.299767971 -4.212750912
12.14544964 -6.346733093 -4.219283104
12.15717983 -6.400424957 -4.230267048
12.16786003 -6.453802109 -4.240953922
12.18505955 -6.510903835 -4.254016876
12.20201969 -6.568171978 -4.267078876
12.20699978 -6.619233131 -4.275986195
12.21428967 -6.671760082 -4.285782814
12.22889996 -6.728536129 -4.298252106
12.22574043 -6.775743008 -4.304485798
12.23241043 -6.828579903 -4.314282894
12.24635983 -6.885734081 -4.326751232
12.2575798 -6.941626072 -4.338329792
12.26360035 -6.994812012 -4.348125935
12.27437973 -7.050954819 -4.359704018
12.27748013 -7.102924824 -4.368610859
12.29358959 -7.162672997 -4.382266998
12.29461956 -7.213887215 -4.390580177
12.29790974 -7.266633034 -4.399783134
12.29771996 -7.317512989 -4.407797813
12.29895973 -7.369441032 -4.416408062
12.31881046 -7.43279314 -4.431845188
12.32205963 -7.486419201 -4.441345215
12.3259201 -7.540633202 -4.451141834
12.3328104 -7.596943855 -4.462125778
12.3410902 -7.65437603 -4.473703861
12.34346962 -7.708387852 -4.483203888
12.34967041 -7.765028 -4.494188786
12.35241985 -7.819736004 -4.503985882
12.36058044 -7.878127098 -4.515861034
12.36126041 -7.931999207 -4.525063992
12.35933018 -7.984395027 -4.533376217
12.39721012 -8.062886238 -4.55653286
13.54823971 -5.703321934 -4.619021893
13.52875996 -5.793098927 -4.624461174
13.4172802 -5.7941432 -4.592124939
13.28057957 -5.783521175 -4.551025867
13.08821964 -5.747585773 -4.49058485
13.0173502 -5.764172077 -4.472150803
12.90038013 -5.75977993 -4.437699795
12.8435297 -5.781723022 -4.424099922
12.71636009 -5.771462917 -4.386023045
12.65958023 -5.792603016 -4.372424126
12.56472015 -5.795880795 -4.345528126
12.50537968 -5.815110207 -4.331021786
12.43655968 -5.829578876 -4.313191891
12.3832798 -5.851010799 -4.3008008
12.2895298 -5.852908134 -4.274208069
12.23542976 -5.873260021 -4.261515141
12.17444038 -5.890014172 -4.246405125
12.13403988 -5.916474819 -4.238546848
12.11839962 -5.954935074 -4.239453793
12.11203003 -5.998007774 -4.243684769
12.1072197 -6.041948795 -4.248519897
12.11332035 -6.09148407 -4.257284164
12.12518978 -6.144128799 -4.268163204
12.12919998 -6.193003178 -4.276322842
12.14575005 -6.24849987 -4.289014816
12.15359974 -6.299769878 -4.298686028
12.16209984 -6.351587772 -4.308659077
12.16448975 -6.400411129 -4.316515923
12.19534016 -6.464487076 -4.334648132
12.20571995 -6.518034935 -4.345528126
12.21000957 -6.568546772 -4.354290962
12.21494007 -6.619600773 -4.363358021
12.21967983 -6.67074585 -4.372424126
12.22671986 -6.723361015 -4.382396221
12.23355007 -6.776082039 -4.392368793
12.23933983 -6.82844305 -4.402040005
12.25074959 -6.884171009 -4.413825989
12.26939011 -6.944261074 -4.428330898
12.27536011 -6.997447014 -4.438303947
12.28194046 -7.05121088 -4.448578835
12.28501034 -7.103171825 -4.457644939
12.29940033 -7.161932945 -4.47094202
12.30943966 -7.218438148 -4.482728004
12.3135004 -7.271678925 -4.492397785
12.32800961 -7.331346989 -4.505998135
12.33572006 -7.387254238 -4.517179012
12.34809017 -7.446230888 -4.530173779
12.34311962 -7.494964123 -4.536821842
12.34609032 -7.548707962 -4.546493053
12.34479046 -7.600041866 -4.554652214
12.3441 -7.651941776 -4.563114166
12.33998013 -7.701889992 -4.570366859
12.35422039 -7.763548851 -4.584569931
12.35451984 -7.816703796 -4.59363699
12.35620022 -7.870957851 -4.60330677
12.3624897 -7.928383827 -4.614790916
12.34130955 -7.968341827 -4.616000175
12.34228039 -8.130884171 -4.644406796
13.62125015 -5.640236855 -4.720530987
13.58193016 -5.672832012 -4.712847233
13.50220013 -5.688249111 -4.691023827
13.4426403 -5.711787224 -4.676270962
13.32446957 -5.709906101 -4.640924931
13.27106953 -5.735282898 -4.628324032
13.2874403 -5.790794849 -4.640310764
13.03808975 -5.825517178 -4.571156025
12.94987011 -5.833836079 -4.546258926
12.69884014 -5.767702103 -4.463581085
12.63696003 -5.78643322 -4.447906017
12.55002022 -5.793274879 -4.423316956
12.47179985 -5.80365181 -4.401802063
12.41084957 -5.821684837 -4.386434078
12.33874035 -5.834112167 -4.367071152
12.27783012 -5.851472855 -4.351703167
12.20320034 -5.861924171 -4.331417084
12.14832973 -5.881507874 -4.318201065
12.12166977 -5.914577961 -4.315126896
12.10262012 -5.951320171 -4.314819813
12.09965038 -5.996026039 -4.320353031
12.09908009 -6.04204607 -4.326807022
12.10089016 -6.089400768 -4.334183216
12.09996986 -6.135532856 -4.340638161
12.12769985 -6.196434975 -4.357542992
12.12386036 -6.241453171 -4.36307478
12.14266968 -6.298332214 -4.376905918
12.14943981 -6.349215984 -4.386434078
12.15095043 -6.397542 -4.394117832
12.1640501 -6.452178001 -4.406105042
12.18365002 -6.510541916 -4.420550823
12.19462013 -6.564577103 -4.431922913
12.21123028 -6.621914864 -4.445446014
12.21173954 -6.670750141 -4.453129768
12.21788979 -6.722861767 -4.462965965
12.22467995 -6.775535107 -4.473108768
12.23458004 -6.83016777 -4.484480858
12.24923038 -6.887722969 -4.497696877
12.26861954 -6.948246002 -4.512757778
12.27287006 -7.00046587 -4.522284985
12.2719698 -7.049934864 -4.529970169
12.28816986 -7.109468937 -4.544107914
12.3032999 -7.168691158 -4.557939053
12.30751038 -7.221811771 -4.567773819
12.31560993 -7.277445793 -4.579145908
12.32676029 -7.335144043 -4.591748238
12.31888962 -7.381731033 -4.597280979
12.32715034 -7.438169003 -4.608960152
12.3213501 -7.486329079 -4.615415096
12.32674026 -7.541473866 -4.626172066
12.32056046 -7.589735985 -4.63262701
12.31661987 -7.63953495 -4.640003204
12.33187008 -7.701478004 -4.654757023
12.34041023 -7.759534836 -4.667049885
12.3438797 -7.81466198 -4.677501202
12.32868004 -7.858120918 -4.680881977
12.3221302 -7.907213211 -4.687644005
12.30900002 -7.952208996 -4.691946983
13.62639999 -5.63776207 -4.818480015
13.58975029 -5.6714921 -4.811594009
13.45242023 -5.71133709 -4.774973869
13.26278973 -5.727116108 -4.719573021
13.14850998 -5.725679874 -4.684830189
13.06478977 -5.736966133 -4.661042213
12.9941597 -5.75356102 -4.64195013
12.89492989 -5.756997108 -4.612527847
12.87633991 -5.796141148 -4.612215042
12.68101025 -5.849154949 -4.560883045
12.53899956 -5.830358982 -4.515810966
12.46172047 -5.840982914 -4.494215012
12.30204964 -5.812232018 -4.44257021
12.20956993 -5.814414024 -4.415338993
12.17282963 -5.842802048 -4.408452988
12.1300602 -5.868123055 -4.399375916
12.09492016 -5.8969841 -4.393115997
12.08273983 -5.936995983 -4.395307064
12.07639027 -5.97993803 -4.399689198
12.07242966 -6.024169922 -4.405010223
12.07849979 -6.073554993 -4.414086819
12.10046959 -6.131190777 -4.429111004
12.09937 -6.177357197 -4.435684204
12.1031599 -6.22618103 -4.444135189
12.11182976 -6.277709007 -4.454463005
12.12112999 -6.329786777 -4.46510601
12.11762047 -6.375348091 -4.471053123
12.14163971 -6.435626984 -4.487329006
12.16205025 -6.494324207 -4.502352238
12.17051029 -6.546905994 -4.512993813
12.1979599 -6.610011101 -4.530835152
12.20512962 -6.66242218 -4.541163921
12.20709991 -6.712193012 -4.549614906
12.21138 -6.763419151 -4.559004784
12.21378994 -6.813808918 -4.567769051
12.22677994 -6.870326996 -4.580602169
12.23952961 -6.926988125 -4.593434811
12.24874973 -6.981910229 -4.605016232
12.25938988 -7.037899971 -4.617222786
12.26733971 -7.092594147 -4.628489971
12.26521969 -7.141667843 -4.636003017
12.28258038 -7.202325821 -4.651027203
12.28495979 -7.254465103 -4.66041708
12.29528999 -7.31154108 -4.672935963
12.30294991 -7.367283821 -4.684516907
12.29899979 -7.416275978 -4.691716194
12.2997303 -7.468269825 -4.700792789
12.30187035 -7.52132988 -4.710495949
12.30218983 -7.573476791 -4.719573021
12.29020023 -7.618189812 -4.723955154
12.28691006 -7.668433189 -4.731780052
12.29710007 -7.727318764 -4.744925976
12.30704975 -7.786340237 -4.758071899
12.30473042 -7.837839127 -4.766522884
12.29261017 -7.883244038 -4.771217823
12.28752041 -7.93328619 -4.778729916
12.38018036 -8.047041893 -4.824739933
12.84871006 -5.740567207 -4.683598042
12.7860899 -5.759712219 -4.667047024
12.72262001 -5.778133869 -4.650177002
12.67553043 -5.803719997 -4.639355183
12.59138966 -5.811986923 -4.61484623
12.52966022 -5.830192089 -4.598612785
12.49627018 -5.861358166 -4.59288311
12.4156599 -5.870087147 -4.569646835
12.37963009 -5.89958477 -4.562963009
12.32557964 -5.9202981 -4.549594879
12.13329029 -5.873813152 -4.484662056
12.09051037 -5.898953915 -4.475430965
12.07831001 -5.938948154 -4.477660179
12.06682968 -5.979342937 -4.480206013
12.07810974 -6.031158924 -4.491345882
12.08156967 -6.079265118 -4.499621868
12.09329987 -6.131737232 -4.511081219
12.09552956 -6.179593086 -4.5190382
12.10179996 -6.229689121 -4.528586864
12.10704041 -6.279446125 -4.537817955
12.11460018 -6.330611229 -4.548003197
12.11190033 -6.376581192 -4.554368973
12.12325954 -6.430146217 -4.566145897
12.14863014 -6.491436005 -4.583333969
12.16454983 -6.547998905 -4.597021103
12.18190002 -6.605625153 -4.611343861
12.18904018 -6.65796423 -4.621848106
12.20011044 -6.712695122 -4.633944035
12.20516014 -6.76433897 -4.643811226
12.21333027 -6.81792593 -4.654951096
12.22292995 -6.87255621 -4.66672802
12.23560047 -6.929176807 -4.679779053
12.23898983 -6.980772972 -4.689326763
12.24464035 -7.033873081 -4.699831009
12.26648998 -7.096567154 -4.716701031
12.26924038 -7.148485184 -4.726250172
12.2676897 -7.198087215 -4.734207153
12.27737999 -7.254498005 -4.746621132
12.27787018 -7.30570507 -4.755533218
12.28629971 -7.36185503 -4.767629147
12.29613018 -7.419105053 -4.780361176
12.30084991 -7.473529816 -4.791182995
12.30373955 -7.5270648 -4.801368237
12.30319023 -7.578700066 -4.810279846
12.29761028 -7.627402782 -4.817283154
12.29586029 -7.678654194 -4.82587719
12.29631996 -7.731479168 -4.835425854
12.29335976 -7.782351971 -4.843701839
12.2934103 -7.835317135 -4.85325098
12.28687 -7.884260178 -4.860252857
12.2721796 -7.928091049 -4.8640728
12.38368988 -8.054089546 -4.918501854
12.7840004 -5.666181087 -4.732392788
12.81838989 -5.728540897 -4.751778126
12.76797009 -5.753067017 -4.739500999
12.70114994 -5.769902229 -4.721085072
12.62831974 -5.783623219 -4.700407028
12.59247017 -5.81400919 -4.693622112
12.53682041 -5.835044861 -4.679406166
12.45888996 -5.845344067 -4.656788826
12.39898014 -5.863716125 -4.640957832
12.31087971 -5.868339062 -4.614463806
12.28427982 -5.901981831 -4.611233234
12.2635603 -5.938405037 -4.610263824
12.22062016 -5.963963985 -4.600893974
12.10715008 -5.954652786 -4.564708233
12.08629036 -5.99050808 -4.563738823
12.08563042 -6.036439896 -4.570524216
12.08987999 -6.08497715 -4.579246998
12.09055996 -6.131884098 -4.586678982
12.10035038 -6.183588982 -4.597662926
12.10404015 -6.232379913 -4.606387138
12.1125803 -6.283865929 -4.617049217
12.11505032 -6.332395077 -4.625450134
12.1164999 -6.38055706 -4.633526802
12.11443043 -6.42701292 -4.640312195
12.14807034 -6.492698193 -4.660988808
12.17475986 -6.555058956 -4.67908287
12.1837101 -6.608170986 -4.690391064
12.20573044 -6.66865921 -4.706869125
12.21588993 -6.722956181 -4.718822956
12.21673012 -6.772332191 -4.727222919
12.22894955 -6.828234196 -4.740147114
12.23104 -6.878707886 -4.749194145
12.23458004 -6.930191994 -4.75888586
12.2428503 -6.984577179 -4.770517826
12.25747013 -7.042849064 -4.784733772
12.25955963 -7.094165802 -4.794103146
12.27289963 -7.152233124 -4.807995796
12.27947044 -7.206615925 -4.819303989
12.27847958 -7.256773949 -4.827704906
12.28055954 -7.308928967 -4.837398052
12.2913599 -7.366517067 -4.850644112
12.29948997 -7.422771931 -4.862922192
12.29850006 -7.473741055 -4.871644974
12.30860996 -7.531686783 -4.884891987
12.31122017 -7.585299015 -4.89523077
12.30397987 -7.633010864 -4.901692867
12.30056953 -7.683257103 -4.909770012
12.29776955 -7.73405695 -4.918169975
12.29716969 -7.786430836 -4.927539825
12.2915802 -7.835822105 -4.934970856
12.28499985 -7.884739876 -4.942079067
12.29096031 -7.941908836 -4.954357147
12.36569977 -8.044083595 -4.99474287
12.35284042 -8.089759827 -4.999588966
12.88448048 -5.659639835 -4.850718021
12.87020969 -5.747834206 -4.858599186
12.75776958 -5.744639874 -4.822477818
12.69707966 -5.764234066 -4.806058884
12.66215992 -5.795300961 -4.799491882
12.59200001 -5.809986115 -4.779460907
12.50988007 -5.81871891 -4.754833221
12.44579029 -5.835422993 -4.737101078
12.35694981 -5.84008503 -4.70984602
12.29207039 -5.855629921 -4.691785812
12.23062038 -5.872467041 -4.675038815
12.17597961 -5.892272949 -4.660919189
12.10945988 -5.906003952 -4.642200947
12.10484028 -5.949792862 -4.647455215
12.0839901 -5.985644817 -4.64647007
12.07149029 -6.025641918 -4.648768902
12.07234955 -6.072409153 -4.656322002
12.07219982 -6.118811131 -4.663546085
12.08197021 -6.170423031 -4.674709797
12.08481979 -6.218696117 -4.683248043
12.09504032 -6.270956993 -4.694740772
12.09751034 -6.319403172 -4.703279018
12.1006403 -6.368362904 -4.712144852
12.10941982 -6.420498848 -4.723309994
12.14381981 -6.486540794 -4.744654179
12.16046047 -6.543457985 -4.759101868
12.17022038 -6.59693718 -4.770923138
12.1922102 -6.657326221 -4.787670135
12.19655991 -6.708353996 -4.797522068
12.20814037 -6.763589859 -4.810328007
12.2211504 -6.819880962 -4.823791027
12.21910954 -6.867986202 -4.831344128
12.22511005 -6.92079401 -4.842179775
12.23746014 -6.977447033 -4.855642796
12.2479496 -7.033299923 -4.868450165
12.2483902 -7.083609104 -4.877315998
12.25434971 -7.137313843 -4.88848114
12.26416969 -7.193511009 -4.901287079
12.26889038 -7.246953011 -4.912123203
12.27095032 -7.299044132 -4.921975136
12.27686024 -7.353641987 -4.933466911
12.27851009 -7.40590477 -4.943318844
12.27752972 -7.456777096 -4.952185154
12.28843975 -7.515102863 -4.965976238
12.28944969 -7.567625046 -4.975828171
12.28866005 -7.619226933 -4.985022068
12.28765965 -7.670896053 -4.994215965
12.29605961 -7.72866106 -5.007350922
12.29782963 -7.782509804 -5.017858982
12.29380989 -7.832890034 -5.026068211
12.28402996 -7.879747868 -5.031979084
12.27725983 -7.92866993 -5.039203167
12.36692047 -8.040429115 -5.086489201
12.34455967 -8.079883575 -5.087473869
12.28845024 -8.151299477 -5.084846973
12.93776035 -5.778831005 -4.975995064
12.74120045 -5.737969875 -4.906562805
12.71238041 -5.771965981 -4.902224064
12.65519047 -5.792889118 -4.886868
12.58001041 -5.805219173 -4.864502907
12.50317001 -5.816348076 -4.841471195
12.41357994 -5.821055889 -4.813430786
12.40503979 -5.863544941 -4.817102909
12.27466011 -5.84804678 -4.773039818
12.20907974 -5.862823009 -4.754346848
12.16983032 -5.889985085 -4.746002197
12.11441994 -5.909107208 -4.731314182
12.07847023 -5.937510967 -4.724304199
12.06779957 -5.978305817 -4.727309227
12.05193043 -6.016564846 -4.728310108
12.04856968 -6.061138153 -4.73431921
12.05010033 -6.108304024 -4.742330074
12.05648994 -6.158110142 -4.752344131
12.05764961 -6.205423832 -4.760354996
12.06449986 -6.255840778 -4.770702839
12.07281971 -6.307230949 -4.781719208
12.07759953 -6.356976032 -4.791399002
12.09467983 -6.413433075 -4.806087017
12.10653973 -6.46739006 -4.818771839
12.12067986 -6.522819996 -4.832458019
12.12794971 -6.574801922 -4.843472958
12.16812038 -6.644965172 -4.867840767
12.17245007 -6.695897102 -4.877854824
12.17988014 -6.748745918 -4.889204979
12.18463993 -6.800324917 -4.899552822
12.19165039 -6.853382111 -4.910902977
12.20174026 -6.908403873 -4.923586845
12.20505047 -6.959815979 -4.933600903
12.21306992 -7.014132023 -4.945618153
12.22576046 -7.071393013 -4.959638119
12.22599983 -7.121679783 -4.968650818
12.23987007 -7.180144787 -4.983337879
12.24536991 -7.233965874 -4.994688034
12.24499035 -7.28451395 -5.00370121
12.2517004 -7.339488983 -5.015717983
12.25010967 -7.389702797 -5.024396896
12.25959969 -7.446828842 -5.037748814
12.25841045 -7.497686863 -5.04676199
12.26906013 -7.556024075 -5.060781002
12.2666502 -7.606546879 -5.069460869
12.2704401 -7.661120892 -5.08081007
12.28279018 -7.721309185 -5.095830917
12.28054047 -7.77256918 -5.104844093
12.27731037 -7.823379993 -5.113523006
12.26912022 -7.871191978 -5.120199203
12.27103996 -7.925674915 -5.131215096
12.27353001 -7.98075819 -5.14256382
12.29673958 -8.103643417 -5.173274994
12.94750023 -5.784707069 -5.066396236
12.76500034 -5.750205994 -5.001327038
12.73443985 -5.783505917 -4.996243
12.66617012 -5.799438 -4.976247787
12.56803036 -5.801204205 -4.944390774
12.47511005 -5.804803848 -4.914567947
12.44871998 -5.839055061 -4.911179066
12.32102966 -5.825341225 -4.867461205
12.23431015 -5.830327988 -4.840010166
12.18498039 -5.852762222 -4.827469826
12.15342045 -5.883556843 -4.822048187
12.09304047 -5.900187016 -4.805102825
12.0655899 -5.932693958 -4.801374912
12.05912971 -5.975531101 -4.806118965
12.0441103 -6.014182091 -4.80747509
12.03820992 -6.057446957 -4.812559128
12.04389954 -6.106690884 -4.822387218
12.05025005 -6.156454086 -4.832553864
12.04969978 -6.202868938 -4.840010166
12.05984974 -6.25496912 -4.851871014
12.07061958 -6.307625771 -4.864071846
12.07868004 -6.359093189 -4.875256062
12.08570957 -6.410226822 -4.886099815
12.08922005 -6.459691048 -4.895588875
12.09916973 -6.512804031 -4.907790184
12.12627029 -6.57545805 -4.927106857
12.14402008 -6.633377075 -4.942697048
12.15824032 -6.689651966 -4.956931114
12.16891956 -6.744253159 -4.969809055
12.18021011 -6.799440861 -4.983026981
12.18225956 -6.849689007 -4.992516041
12.18247032 -6.899085999 -5.001327038
12.18902969 -6.952278137 -5.012849808
12.18885994 -7.001824856 -5.021660805
12.20151997 -7.058976173 -5.035894871
12.21638966 -7.11769104 -5.05114603
12.22856998 -7.175134182 -5.065380096
12.23808956 -7.231284142 -5.078597069
12.23768044 -7.281785965 -5.087747097
12.23626041 -7.331870079 -5.096559048
12.24110031 -7.385900974 -5.108080864
12.25617027 -7.446382999 -5.124010086
12.2565403 -7.498188019 -5.133838177
12.26231956 -7.553520203 -5.146038055
12.26387024 -7.606478214 -5.156544209
12.27000046 -7.662507057 -5.169084072
12.27989006 -7.721148014 -5.183318138
12.27044964 -7.767845154 -5.189417839
12.27830029 -7.82568121 -5.202973843
12.27482033 -7.876523972 -5.21178484
12.27350998 -7.928952217 -5.22161293
12.27042007 -7.980419159 -5.230763912
12.33010006 -8.073174477 -5.267025948
12.3052702 -8.110962868 -5.267025948
12.89768028 -5.761273861 -5.132987022
12.77120972 -5.751849174 -5.089300156
12.73213005 -5.781299114 -5.080699921
12.6537199 -5.79258585 -5.056276798
12.49520969 -5.766464233 -4.999518871
12.45788002 -5.795661926 -4.991608143
12.43153954 -5.829868793 -4.988167763
12.31171989 -5.819828987 -4.946888924
12.23192978 -5.828092098 -4.921778202
12.18437004 -5.851366043 -4.909739017
12.15789986 -5.884628773 -4.906299114
12.08578014 -5.895555019 -4.884284019
12.07184982 -5.934678078 -4.886003017
12.06116009 -5.975437164 -4.889100075
12.04948997 -6.015767097 -4.891850948
12.05027008 -6.062410831 -4.899763107
12.04837036 -6.107842922 -4.906642914
12.04880047 -6.154602051 -4.914555073
12.05323982 -6.203568935 -4.92418623
12.05998993 -6.253918171 -4.934850216
12.07487011 -6.308713913 -4.948953152
12.07042027 -6.353601933 -4.955144882
12.08819962 -6.41039896 -4.97062397
12.09580994 -6.462055206 -4.981976032
12.10982037 -6.5173769 -4.996078968
12.11287975 -6.567028999 -5.005711079
12.15449047 -6.637913227 -5.031509876
12.16368008 -6.691462994 -5.043893814
12.16773987 -6.742402077 -5.054214001
12.17650986 -6.796174049 -5.066596985
12.18507004 -6.850062847 -5.078979969
12.18115997 -6.897129059 -5.086204052
12.18358994 -6.947957039 -5.096179962
12.19235039 -7.002604961 -5.108908176
12.1984396 -7.055962086 -5.120603085
12.20512962 -7.109893799 -5.132643223
12.22700024 -7.172961235 -5.151217937
12.23647022 -7.229064941 -5.164632797
12.23682022 -7.280014038 -5.174264908
12.2514801 -7.339717865 -5.190087795
12.24820995 -7.38891077 -5.198344231
12.28005028 -7.459600925 -5.221735001
12.23707962 -7.484992981 -5.213136196
12.26842976 -7.555982113 -5.236526966
12.26513958 -7.605957031 -5.245127201
12.27600002 -7.664933205 -5.259918213
12.28182983 -7.721047878 -5.272644997
12.30887032 -7.790831089 -5.294661045
12.28174019 -7.82653904 -5.293284893
12.28927994 -7.88446188 -5.307044029
12.28081036 -7.93231678 -5.313923836
12.28318024 -7.987360001 -5.325620174
13.68838024 -5.567102909 -5.459399223
13.62162018 -5.735752106 -5.460445881
12.82184982 -5.726240158 -5.185862064
12.75636005 -5.744007111 -5.166324139
12.68321037 -5.757938862 -5.14364481
12.64758968 -5.788634777 -5.136318207
12.55148029 -5.791295052 -5.10421896
12.50730991 -5.817523956 -5.093403816
12.38757992 -5.808135986 -5.051536083
12.31717014 -5.821290016 -5.029903889
12.2747097 -5.847364902 -5.019785881
12.20349026 -5.859446049 -4.997805119
12.15509033 -5.882164001 -4.985245228
12.08222961 -5.892728806 -4.962565899
12.06830025 -5.931836128 -4.964311123
12.05004978 -5.96883297 -4.964311123
12.03921986 -6.009541035 -4.967451096
12.03831005 -6.055290222 -4.974778175
12.03890991 -6.101937771 -4.982802868
12.0485096 -6.153334141 -4.994665146
12.04539967 -6.198414803 -5.001294136
12.06459999 -6.255179882 -5.017343998
12.06114006 -6.300406933 -5.023972988
12.08156013 -6.358326912 -5.040719986
12.08022022 -6.405018806 -5.048396111
12.0886097 -6.457060814 -5.060257912
12.09928036 -6.510546207 -5.073166847
12.11715984 -6.568175793 -5.089217186
12.12162018 -6.618792057 -5.099683762
12.14313984 -6.67897892 -5.117477894
12.14719009 -6.72982502 -5.127944946
12.16331005 -6.787608147 -5.14364481
12.17183971 -6.841421127 -5.156206131
12.17770958 -6.893964767 -5.167718887
12.18093014 -6.945217133 -5.17818594
12.17907047 -6.99375391 -5.186560154
12.18595028 -7.047503948 -5.198771
12.2007103 -7.106079102 -5.214471817
12.21442032 -7.164336205 -5.229823112
12.22305012 -7.219884872 -5.243082047
12.22823048 -7.273637772 -5.254943848
12.22916985 -7.325082779 -5.265061855
12.2371397 -7.38095808 -5.278319836
12.24888039 -7.439382076 -5.29332304
12.2483902 -7.490613937 -5.303092003
12.25566959 -7.546826839 -5.316349983
12.25397015 -7.597723007 -5.325769901
12.26558018 -7.657115936 -5.34112215
12.27297974 -7.714158058 -5.354729176
12.27460003 -7.767808914 -5.365893841
12.27600002 -7.821543217 -5.377058983
12.26615047 -7.868275166 -5.383338928
12.25691032 -7.915528774 -5.389967918
12.26006985 -7.970972061 -5.402180195
12.31789017 -8.062431335 -5.438814163
13.87174988 -5.639855862 -5.628162861
13.79294968 -5.657186985 -5.603020191
13.71504021 -5.674444199 -5.578230858
13.67426014 -5.706768036 -5.568669796
12.80541992 -5.764211178 -5.275452137
12.70592022 -5.766361237 -5.241456032
12.64990997 -5.787803173 -5.225520134
12.5573597 -5.792109013 -5.194355965
12.30819988 -5.815136909 -5.11255312
12.28439045 -5.850056171 -5.110074043
12.17111969 -5.841979027 -5.070057869
12.12872982 -5.867478848 -5.059788227
12.07621002 -5.887856007 -5.045269012
12.04214001 -5.917039871 -5.038539886
12.03398037 -5.958937168 -5.042789936
12.02484989 -6.000422955 -5.046685219
12.01473999 -6.041489124 -5.050227165
12.02116966 -6.091003895 -5.060851097
12.02742004 -6.140614986 -5.071474075
12.03678989 -6.192032814 -5.083515167
12.05510044 -6.248301983 -5.099451065
12.08358002 -6.548015118 -5.162130833
12.08806038 -6.598501205 -5.172754765
12.11692047 -6.662594795 -5.194003105
12.15450954 -6.731914043 -5.219145775
12.14931011 -6.777830124 -5.225873947
12.16697025 -7.034554005 -5.279701233
12.18251038 -7.09349823 -5.295990944
12.20102024 -7.154496193 -5.313697815
12.20075989 -7.204736233 -5.323258877
12.21718025 -7.265079975 -5.340257168
12.23808956 -7.534002781 -5.399751186
12.23398972 -7.583341122 -5.408249855
12.24398994 -7.641636848 -5.423122883
12.23711014 -7.689616203 -5.430560112
12.24903011 -7.749625206 -5.44649601
13.59051991 -5.670566082 -5.628251076
13.05403996 -5.731056213 -5.447500229
10.93957996 27.10957909 -8.319821358
14.97309971 30.45525932 -6.945352077
14.58096981 30.09947014 -7.240387917
14.61793995 30.43527031 -7.532126904
14.66320992 30.29103088 -7.507400036
14.64441013 30.01700974 -7.450285912
34.24071121 -35.09980011 -7.018846989
34.09909821 -35.16986084 -7.011868
34.06933975 -35.3555603 -7.028107166
30.95853996 -28.41386986 -6.009403229
30.88285065 -28.51946068 -6.011682987
30.80319023 -28.62148094 -6.01324892
31.35075951 -27.22147942 -6.196238995
31.21347046 -27.27069092 -6.185545921
31.02333069 -27.44203949 -6.181090832
30.91428947 -28.02924919 -6.227719784
30.88513947 -28.17593956 -6.239304066
30.83134079 -28.30065918 -6.245985985
30.8046608 -28.45079994 -6.258310795
31.02383995 -27.07570076 -6.409549236
30.95919037 -27.18704987 -6.413415909
30.88155937 -27.28713989 -6.414653778
30.85971069 -27.43688965 -6.427649975
28.26748085 -25.3055191 -6.828417778
28.07566071 -25.28937912 -6.800632
22.29055977 8.440408707 -6.775886059
22.32354927 8.374684334 -6.778086185
22.36368942 8.233566284 -6.774785995
22.75346947 7.592990875 -6.819331169
22.3094101 8.380760193 -6.928058147
22.3017292 8.299889565 -6.917673111
22.32798958 8.231760979 -6.917953014
22.34954071 8.161904335 -6.916831017
22.38710976 8.097869873 -6.920760155
22.40743065 7.950081825 -6.911778927
22.44400024 7.808342934 -6.908130169
22.2800808 8.364746094 -7.203186989
22.32715988 8.304355621 -7.210175991
22.30944061 8.219944 -7.196197987
22.35611916 8.159331322 -7.203186989
22.3783493 8.089730263 -7.202312946
22.35532951 8.003947258 -7.186879158
22.37075996 7.932127953 -7.183967113
22.31374931 7.834938049 -7.15775919
22.44552994 7.726830959 -7.184841156
22.54663086 7.992549896 -7.395843983
22.59614944 7.854370117 -7.396141052
18.99585915 11.39593029 -6.436891079
19.08268929 11.3685503 -6.454573154
19.10839081 11.3045702 -6.451486111
19.15456009 11.25269985 -6.455414772
19.2130394 11.20790958 -6.463553905
18.21607971 11.53439045 -6.390768051
18.36544037 11.39352989 -6.406204224
18.89640999 11.32528019 -6.530837059
19.30677032 11.1723299 -6.613162994
18.00695038 11.48556995 -6.460327148
18.02512932 11.41952038 -6.454212189
18.07222939 11.37180996 -6.458580017
18.10540962 11.31529999 -6.457997799
18.16198921 11.2733202 -6.46585989
18.17775917 11.20600033 -6.459163189
18.28059006 11.19213009 -6.483623981
19.2102108 11.12047005 -6.859687805
19.2533493 11.06672001 -6.86295414
18.9480896 11.13140011 -6.925741196
19.04801941 11.11163998 -6.94991684
19.09604073 11.06126976 -6.955055237
19.19021034 11.03732967 -6.977116108
18.60186958 11.07569027 -6.95132494
18.65788078 11.03164959 -6.959623814
18.84262085 11.06301022 -7.016177177
18.97768021 10.98628998 -7.041379929
19.13009071 10.99631023 -7.085639954
19.24852943 10.90781021 -7.104695797
18.26825905 11.03540993 -6.992251873
18.36067009 11.01447964 -7.014788151
18.46945 11.00282001 -7.043582916
18.57831955 10.9905901 -7.072380066
18.74871063 11.01387024 -7.124650002
18.81604958 10.97591019 -7.13748312
18.94580078 10.97383022 -7.174104214
19.00819016 10.93222046 -7.185059071
17.36309052 10.9981699 -6.859479904
17.4817009 10.92356968 -6.879850864
17.54653931 10.88938046 -6.892264843
17.62586975 10.86384964 -6.91040802
17.7270298 10.85128975 -6.937145233
18.00164032 10.9435997 -7.031998158
18.11952972 10.93927956 -7.065100193
18.3001709 10.97185993 -7.122712135
18.40379906 10.95738029 -7.150085926
18.47159958 10.92113018 -7.163455009
18.70285988 10.98054981 -7.240481853
18.82818985 10.97659016 -7.276132107
18.88639069 10.93303013 -7.285680771
19.01354027 10.92889023 -7.321967125
16.84765053 11.48406982 -6.919400215
16.86635017 11.42119026 -6.912614822
16.92580986 11.23563004 -6.894198895
17.20315933 10.96899033 -6.923923016
17.36145973 10.92066956 -6.960755825
17.44544983 10.89894962 -6.98111105
17.54635048 10.88729 -7.00825119
17.6860199 10.89894962 -7.050899029
17.7920208 10.88910007 -7.079977036
17.87467003 10.86445045 -7.099686146
18.04647064 10.89319038 -7.154933929
18.25188065 10.94093037 -7.223430157
18.33658981 10.91537952 -7.243783951
18.44330978 10.90240955 -7.272861958
18.63908958 10.94112015 -7.337158203
18.77395058 10.94297981 -7.377221107
18.85165977 10.91092968 -7.394668102
16.70841026 11.47095966 -7.004181862
16.73571968 11.41431999 -7.000897884
16.75111008 11.34967995 -6.992689133
16.77018929 11.28767967 -6.986122131
16.79845047 11.23198032 -6.983495235
16.81002045 11.1652298 -6.973971844
16.84025002 11.11100006 -6.972330093
16.87978935 11.06291008 -6.974627972
16.92394066 11.01776981 -6.978898048
16.97035027 10.97401047 -6.984150887
17.03334999 10.94077969 -6.996301174
17.11938095 10.92199993 -7.0179739
17.20466995 10.90229988 -7.039318085
17.32196999 10.90229988 -7.073797226
17.41860962 10.88866043 -7.099739075
17.50890923 10.87053967 -7.123053074
17.64105988 10.87775993 -7.163443089
17.76536942 10.87932968 -7.200549126
17.97942924 10.93472958 -7.274104118
18.1115303 10.93910027 -7.314166069
18.18873978 10.90972042 -7.331898212
18.45776939 10.91765976 -7.413661957
18.82862091 10.82736969 -7.509218216
16.40210915 12.01461983 -7.158090115
16.4251709 11.95425987 -7.152081013
16.44495964 11.89165974 -7.144738197
16.46146011 11.82686043 -7.136058807
16.47619057 11.76095963 -7.126711845
16.49835014 11.70055008 -7.120704174
16.56624031 11.44577026 -7.088657856
16.58262062 11.38208961 -7.080646992
16.60811996 11.32479 -7.076641083
16.63731956 11.27007961 -7.074305058
16.68041992 11.22476959 -7.07797718
16.70850945 11.16936016 -7.075305939
16.73406029 11.11231041 -7.071633816
16.77358055 11.0645504 -7.073970795
16.81848907 11.02027035 -7.078643799
16.86881065 10.97941017 -7.085653782
16.91507912 10.9357996 -7.090994835
16.98106956 10.90472984 -7.104681015
17.06292915 10.8835001 -7.125042915
17.16153908 10.8724699 -7.152414799
17.36701965 10.85387993 -7.210497856
17.48192978 10.85124969 -7.244545937
17.65074921 10.88115978 -7.300960064
17.7853508 10.88897038 -7.343019009
17.85573006 10.85688019 -7.358374119
18.05760956 10.90386963 -7.428140163
18.14191055 10.87895966 -7.449170113
18.28778076 10.89027977 -7.495569229
18.38602066 10.87250996 -7.522274017
16.2800293 12.15493965 -7.276716232
16.30817986 12.09821033 -7.272648811
16.32855034 12.03584003 -7.265192986
16.3777504 11.9177103 -7.254347801
16.38221931 11.84424973 -7.240115166
16.39860916 11.77966976 -7.231303215
16.4101696 11.71181011 -7.220458031
16.41301918 11.63801003 -7.205884933
16.42173004 11.56863976 -7.194024086
16.42630959 11.49662018 -7.180468082
16.44450951 11.43435955 -7.17301178
16.46635056 11.37475967 -7.16725111
16.49729919 11.32153034 -7.165555954
16.52029037 11.26292038 -7.160471916
16.5578804 11.21428967 -7.161828041
16.58283997 11.15713978 -7.157761097
16.61387062 11.10412025 -7.156404972
16.66353035 11.0635004 -7.163184166
16.70132065 11.01492023 -7.164877892
16.82570076 10.87605953 -7.175045013
16.88035965 10.83810997 -7.184195995
16.98730087 10.83331013 -7.215713978
17.10232925 10.83300018 -7.250619888
17.21590996 10.83108044 -7.284850121
17.3128891 10.81809044 -7.311962128
17.47870064 10.84727955 -7.368218899
17.66006088 10.88492012 -7.430915833
17.70380974 10.83708 -7.435321808
17.87766075 10.86824036 -7.49462986
17.94877052 10.83619022 -7.510559082
16.27178955 12.15112972 -7.397799969
16.27506065 12.07598019 -7.382320881
16.30599022 12.02153015 -7.379569054
16.3268795 11.95979023 -7.372344971
16.35135078 11.90081024 -7.366840839
16.35354996 11.82581997 -7.351362228
16.34161949 11.51445961 -7.281531811
16.38820076 11.32299995 -7.255389214
16.4135704 11.26628971 -7.251262188
16.44339943 11.21271038 -7.249197006
16.47850037 11.16273022 -7.249542236
16.50721931 11.10846043 -7.247134209
16.52169991 11.04471016 -7.238533974
16.56489944 11.00020981 -7.242661953
16.60640907 10.95450974 -7.246101856
16.63600922 10.9009304 -7.244381905
16.73727989 10.82108021 -7.259517193
16.8391304 10.81383038 -7.28944397
17.34639931 10.84127045 -7.451806068
17.45376968 10.83405018 -7.483797073
17.58204079 10.83909988 -7.524732113
16.28878021 12.16617012 -7.526976109
16.27411079 12.07759953 -7.502902031
16.29221916 12.01371002 -7.494178772
16.32901001 11.96366978 -7.494178772
16.33532906 11.89144993 -7.480223179
16.28441048 11.77812004 -7.440100193
16.26795959 11.69036007 -7.416026115
16.30146027 11.63875961 -7.414978981
16.29122925 11.55615997 -7.394044876
16.31282043 11.49641037 -7.387764931
16.33956909 11.44038963 -7.383926868
16.30458069 11.34150982 -7.352177143
16.32311058 11.28024006 -7.344850063
16.34992027 11.22480965 -7.341361046
16.38195992 11.17300987 -7.340313911
16.40607071 11.11585999 -7.33577919
16.43931961 11.06494999 -7.335430145
16.46462059 11.00874043 -7.331592083
16.50222015 10.96076012 -7.333335876
16.53420067 10.90904999 -7.332639217
16.5660305 10.85725021 -7.331941128
16.59769058 10.8053503 -7.331243038
16.63311958 10.75590038 -7.332290173
16.34382057 12.05354977 -7.647754192
16.32868004 11.96522045 -7.623319149
16.3335495 11.89194965 -7.608446121
16.25402069 11.75792027 -7.554265022
16.23990059 11.6719799 -7.530891895
16.29084969 11.63296986 -7.537973881
16.27688026 11.54776955 -7.514955997
16.29618073 11.48645973 -7.507520199
16.30835915 11.42031956 -7.49689579
16.34332085 11.37022972 -7.49689579
16.33197021 11.2881403 -7.475647926
16.33876991 11.21891975 -7.462899208
16.35301971 11.15503979 -7.453691959
16.38406944 11.10272026 -7.45227623
16.40875053 11.04613972 -7.44802618
16.52585983 10.83267021 -7.440235138
16.55979919 10.7824297 -7.440588951
16.37447929 11.09840965 -7.57482481
16.39838028 11.04133987 -7.57015419
16.52016068 10.83108997 -7.564404011
16.55565071 10.78188992 -7.56548214
24.66737938 45.79159164 -7.771969795
16.60022926 37.74966049 -7.924425125
16.73506927 37.74163818 -7.933526039
16.8628006 37.7170105 -7.939215183
16.97600937 37.659729 -7.938076973
17.10610008 37.63964081 -7.944902897
40.66424942 -8.867336273 -3.90388608
40.6542511 -8.882666588 -4.145142078
40.7145195 -8.61164856 -4.416871071
40.68790817 -8.736517906 -4.416871071
