# .PCD v0.7 - Point Cloud Data file format
VERSION 0.7
FIELDS x y z
SIZE 4 4 4
TYPE F F F
COUNT 1 1 1
WIDTH 174
HEIGHT 1
VIEWPOINT 0 0 0 1 0 0 0
POINTS 174
DATA ascii
12.86643028 35.98003006 -7.825094223
12.98873043 35.97356033 -7.832351208
14.98649979 30.48250961 -6.951601028
14.51395035 30.19689941 -7.253149986
14.55498028 30.04582977 -7.227414131
14.64838028 30.0036602 -7.228052139
31.19486046 -29.50741959 -5.622467995
31.22483063 -29.71781921 -5.644425869
31.17719078 -29.8553009 -5.652399063
30.94445038 -27.88060951 -5.95626688
30.28321075 -15.71662998 -5.713527203
30.20339012 -15.79300976 -5.707541943
30.15567017 -15.88605976 -5.707707882
30.11636925 -15.98359013 -5.709537029
30.23308945 -15.67977047 -5.923376083
30.1796093 -15.76972008 -5.92234087
30.12585068 -15.8594799 -5.921307087
30.03266907 -15.92829037 -5.912511826
30.01929092 -16.03939056 -5.91958189
30.32818031 -15.61695004 -6.135726929
30.29545021 -15.83603001 -6.148729801
30.11787033 -15.86104012 -6.122368813
30.0334301 -15.93445015 -6.115066051
29.97746086 -16.02280998 -6.113640785
29.92901993 -16.11516953 -6.113819122
30.42856026 -15.78275967 -6.375847816
30.36083031 -15.86602974 -6.3718009
30.20763969 -15.90415001 -6.349727154
30.09098053 -15.9608202 -6.335379124
30.07740974 -16.07205963 -6.34292078
30.02795982 -16.16426086 -6.34292078
30.36121941 -15.87553024 -6.577058792
30.26980019 -15.94618034 -6.567769051
30.24848938 -16.05369949 -6.57383585
30.14281082 -16.11632919 -6.561511993
30.38025093 -15.88805008 -6.798842907
30.26281929 -15.94507027 -6.783390045
30.25621033 -16.06036949 -6.792973995
30.1001091 -16.21501923 -6.78006506
20.8284893 7.451828957 -6.557992935
20.70940971 7.486505032 -6.662130833
19.78767967 8.485261917 -6.652470112
19.78636932 8.412931442 -6.643267155
19.79624939 8.345511436 -6.637922764
19.83144951 8.288788795 -6.641188145
19.81620979 8.211092949 -6.627532005
19.86091042 8.087187767 -6.625751019
19.875 8.021928787 -6.622189045
19.87647057 7.951694012 -6.614470005
19.90166092 7.891027927 -6.614767075
19.95326042 7.770152092 -6.615953922
19.98501968 7.711993217 -6.618626118
20.3196106 7.485065937 -6.691062927
20.41065025 7.447566986 -6.713625908
20.6498394 7.463130951 -6.785171986
19.6491394 8.432114601 -6.737467766
19.67491913 8.37179184 -6.737467766
19.66011047 8.294345856 -6.723567009
19.67050934 8.227736473 -6.718430042
19.69654083 8.167715073 -6.71873188
19.70564079 8.10072422 -6.713292122
19.72422028 8.037712097 -6.711176872
19.76823044 7.985015869 -6.717824936
19.76519966 7.913345814 -6.708456993
19.80091095 7.857241154 -6.712386131
19.83112907 7.79889822 -6.714500904
19.86473083 7.741827965 -6.717824936
19.90439034 7.687028885 -6.723265171
19.96616936 7.640576839 -6.736258984
20.10174942 7.481094837 -6.758623123
20.1639595 7.433897972 -6.771920204
19.49901009 8.790190697 -6.867108822
19.49983025 8.718673706 -6.857889175
19.49777985 8.646076202 -6.847745895
19.49894905 8.575106621 -6.838831902
19.59782982 7.980387211 -6.793344021
19.61162949 7.915948868 -6.789655209
19.63847923 7.856804848 -6.790576935
19.67663956 7.802131176 -6.795495033
19.69870949 7.74103117 -6.794879913
19.76581955 7.697483063 -6.809940815
19.86156082 7.594752789 -6.826846123
19.84116936 7.517260075 -6.811785221
19.9318409 7.481771946 -6.835144043
19.99662018 7.436178207 -6.849589825
20.04969978 7.385980129 -6.860040188
19.41679955 8.758730888 -6.978479862
19.41062927 8.684382439 -6.966586113
19.42156029 8.617857933 -6.960951805
19.41921997 8.545610428 -6.950623035
19.41226959 8.471558571 -6.938728809
19.43468094 8.41045475 -6.937477112
19.42285919 8.334687233 -6.924017906
19.41250992 8.25981617 -6.911184788
19.44997978 8.065156937 -6.897727013
19.47887039 7.937419891 -6.890528202
19.50576973 7.878689766 -6.891467094
19.52897072 7.818457127 -6.891152859
19.56522942 7.763409138 -6.895534992
19.59337044 7.705084801 -6.897099972
19.64435005 7.655626774 -6.906804085
19.7459507 7.555988789 -6.926208973
19.7903595 7.503452778 -6.933721066
19.83639908 7.451384068 -6.941858768
19.89833069 7.40506506 -6.955630779
19.35009956 8.794249535 -7.095019817
19.32686996 8.712248802 -7.076559067
19.32407951 8.639759064 -7.065736771
19.3418293 8.576589584 -7.062553883
19.3645401 8.444865227 -7.051732063
19.35903931 8.371870995 -7.04027319
19.37896919 8.09967804 -7.010672092
19.38533974 8.032565117 -7.003986835
19.38972092 7.96476984 -6.996665955
19.41670036 7.906318188 -6.997622013
19.43734932 7.845292091 -6.996347904
19.45956993 7.784917831 -6.99571085
19.49304962 7.729023933 -6.999213219
19.52990913 7.674384117 -7.003986835
19.57014084 7.620965958 -7.010035038
19.61730957 7.570105076 -7.018629074
19.68206024 7.525795937 -7.033588886
19.7130394 7.468400002 -7.036454201
19.75182915 7.413881779 -7.042182922
19.77981949 7.355231762 -7.044093132
19.31633949 8.563433647 -7.172058105
19.32865906 8.498037338 -7.166889191
19.32081032 8.423946381 -7.154287815
19.3178997 8.352236748 -7.143626213
19.32691002 8.285845757 -7.137486935
19.32698059 8.215774536 -7.128118038
19.34163094 8.152030945 -7.124239922
19.3386097 8.080975533 -7.113902092
19.40932083 7.763001919 -7.095161915
19.44272995 7.707254887 -7.098715782
19.47860909 7.652414799 -7.103240013
19.52051926 7.599830151 -7.110023975
19.56669998 7.548762798 -7.118424892
19.5968399 7.491401196 -7.121008873
19.38163948 8.741336823 -7.349957943
19.21920013 8.456059456 -7.258014202
19.29265976 8.417834282 -7.276073933
19.26638031 8.336098671 -7.256371975
19.2875309 8.27508831 -7.254730225
19.29109955 8.206630707 -7.246520996
19.28833961 8.135660172 -7.236012936
19.31233025 8.076081276 -7.235683918
19.31171989 8.00630188 -7.226161003
19.31958961 7.94019413 -7.219923019
19.33073997 7.875537872 -7.214996815
19.3725605 7.754322052 -7.212697983
19.40239906 7.69728899 -7.214996815
19.65155029 7.449328899 -7.264581203
19.64425087 7.377710819 -7.253417015
40.7326088 -8.763637543 -3.644253016
40.60784149 -8.855034828 -3.89841795
40.59204102 -8.869075775 -4.138741016
40.66555023 -8.731716156 -4.414422989
40.77922821 -8.773669243 -4.677690029
39.80247116 -9.325909615 -5.590643883
39.76691818 -9.446375847 -5.589688778
39.81393051 -9.331225395 -5.847002983
39.78416061 -9.453100204 -5.846859932
39.74438095 -9.572562218 -5.845293999
39.89175034 -9.223074913 -6.109811783
39.8517189 -9.342709541 -6.108029842
39.84017944 -9.469044685 -6.110702991
39.81959915 -9.593312263 -6.112039089
39.97476959 -9.219676971 -6.385569096
39.92033005 -9.465467453 -6.386033058
39.39931107 10.50883961 -6.836063862
39.44567108 10.39167976 -6.838558197
39.48308945 10.27210045 -6.839554787
39.49089813 10.01583004 -6.830079079
