# .PCD v0.7 - Point Cloud Data file format
VERSION 0.7
FIELDS x y z
SIZE 4 4 4
TYPE F F F
COUNT 1 1 1
WIDTH 596
HEIGHT 1
VIEWPOINT 0 0 0 1 0 0 0
POINTS 596
DATA ascii
14.79596996 -2.42138505 -4.343398094
14.75627995 -2.461399078 -4.333855152
14.82514 -2.292999983 -4.434085846
14.70917988 -2.321301937 -4.401212215
14.65089989 -2.358198881 -4.385776043
14.60198021 -2.396311998 -4.373198986
14.6389904 -2.448524952 -4.386633873
14.54261017 -2.478300095 -4.359763145
14.78291988 -2.282141924 -4.512177944
14.73711014 -2.321378946 -4.500238895
14.61184978 -2.347601891 -4.463839054
14.51583958 -2.37787509 -4.436466217
14.43204021 -2.409631014 -4.412878036
14.39062977 -2.448117018 -4.402394772
14.28973007 -2.476078033 -4.373566151
14.8394804 -2.152678013 -4.620656967
14.82903004 -2.197634935 -4.619470119
14.78917027 -2.23811698 -4.609078884
14.73460007 -2.322426081 -4.596313953
14.64348984 -2.354127884 -4.56989193
14.44773006 -2.368145943 -4.51051712
14.28499031 -2.386492014 -4.46153307
14.19571018 -2.416363955 -4.435705185
14.12425041 -2.448810101 -4.415516853
14.07341003 -2.484493017 -4.401861191
14.79932976 -2.282284021 -4.706056118
14.80356026 -2.329453945 -4.709682941
14.4512701 -2.364984035 -4.601191998
14.3555603 -2.394567966 -4.572783947
14.10943985 -2.398036003 -4.496025085
14.00903034 -2.425216913 -4.466106892
13.93581009 -2.456602097 -4.444952011
13.85408974 -2.486046076 -4.421078205
13.49923038 -3.025880098 -4.344621181
13.49063015 -3.111008883 -4.347945213
13.45409966 -3.146090031 -4.339180946
13.43603992 -3.185372114 -4.336462021
13.41971016 -3.225019932 -4.334345818
13.41252995 -3.266851902 -4.335252762
13.42096043 -3.312553883 -4.34129715
13.41812992 -3.355562925 -4.343714237
13.44196033 -3.40537405 -4.354896069
13.45454025 -3.452519894 -4.362451077
13.42819977 -3.489706039 -4.35731411
13.46259975 -3.542773008 -4.372120857
13.45534992 -3.585040092 -4.373330116
13.44705009 -3.627048969 -4.374237061
13.4514904 -3.672554016 -4.379374981
13.44384003 -3.7148211 -4.380582809
13.46084023 -3.764005899 -4.389951229
13.45656013 -3.807360888 -4.392368793
13.45948029 -3.852823973 -4.397203922
13.45950031 -3.897546053 -4.40113306
13.46028996 -3.942572117 -4.405364037
13.46823978 -3.989804983 -4.4120121
13.46780014 -4.03466177 -4.415941238
13.47542953 -4.082040787 -4.422588825
13.47560978 -4.127272129 -4.426819801
13.47836018 -4.173388004 -4.431958199
13.47914028 -4.218988895 -4.436491013
13.48157978 -4.265211105 -4.441627979
13.48567963 -4.312067032 -4.447370052
13.48690987 -4.358108997 -4.452205181
13.48978043 -4.404791832 -4.457644939
13.49612045 -4.452726841 -4.464293003
13.49866962 -4.499536991 -4.469733238
13.49473953 -4.544276237 -4.473056793
13.4897604 -4.58872509 -4.476078987
14.15548992 -2.365156889 -4.59420681
14.05811024 -2.393249989 -4.56470108
13.9916296 -2.42613101 -4.5453372
13.88759995 -2.452011108 -4.513679981
13.76012039 -2.473069906 -4.474338055
13.46187973 -2.633269072 -4.389200211
13.44906998 -2.673629045 -4.387662888
13.43241024 -2.713182926 -4.384897232
13.37275028 -2.743865013 -4.367991924
13.34377003 -2.780610085 -4.36123085
13.32586956 -2.819566011 -4.358157158
13.32553005 -2.862234116 -4.360922813
13.33714008 -2.90756011 -4.367684841
13.34580994 -2.952368021 -4.373525143
13.34875965 -2.996006012 -4.377521038
13.37290955 -3.044547081 -4.388586044
13.35702038 -3.084063053 -4.386434078
13.35953999 -3.127846003 -4.39042902
13.35451031 -3.169915915 -4.391965866
13.35490036 -3.213320017 -4.395347118
13.35330009 -3.256304979 -4.398114204
13.35525036 -3.300224066 -4.402109146
13.35336971 -3.343261003 -4.404874802
13.35781002 -3.38795495 -4.4097929
13.35196018 -3.430104017 -4.411330223
13.36163998 -3.476320028 -4.418091774
13.36931038 -3.522144079 -4.424239159
13.3759203 -3.567801952 -4.430078983
13.37685013 -3.612046003 -4.434073925
13.38681984 -3.65883708 -4.44114399
13.39111996 -3.704200983 -4.446369171
13.39710999 -3.750139952 -4.452208996
13.4075098 -3.797446012 -4.45958519
13.40769005 -3.84196806 -4.463581085
13.41228962 -3.887851954 -4.469112873
13.41399956 -3.932996988 -4.473722935
13.41646957 -3.978458881 -4.478641033
13.42243004 -4.025066853 -4.484787941
13.42368031 -4.070367813 -4.489398003
13.43295956 -4.118225098 -4.49677515
13.43299007 -4.163360119 -4.501078129
13.43286991 -4.208533764 -4.505381107
13.42895985 -4.252597809 -4.5084548
13.42673016 -4.297256947 -4.512143135
13.43340015 -4.344871044 -4.518905163
13.44624043 -4.39463377 -4.527818203
13.44353962 -4.439445019 -4.531507015
13.45783997 -4.490003109 -4.541034222
13.47014999 -4.540081978 -4.549948215
13.46786976 -4.585371971 -4.553943157
13.37994957 -4.601299763 -4.528739929
13.90804958 -2.363487959 -4.607832909
13.88669968 -2.403714895 -4.60313797
13.81004047 -2.434102058 -4.579976082
13.68939972 -2.456155062 -4.542102814
13.59770966 -2.482780933 -4.513933182
13.48451996 -2.50487709 -4.478565216
13.41891003 -2.535299063 -4.459158897
13.41759968 -2.577709913 -4.46134901
13.33971977 -2.605202913 -4.437874794
13.24874973 -2.629652977 -4.410017967
13.24528027 -2.671226978 -4.411582947
13.23888016 -2.712230921 -4.412209034
13.24816036 -2.756511927 -4.418156147
13.24892998 -2.799108028 -4.421286106
13.25421047 -2.842730999 -4.425981045
13.24913979 -2.88418889 -4.427233219
13.26062965 -2.929332018 -4.434119225
13.27567959 -2.975404024 -4.442256927
13.27760029 -3.018646955 -4.446012974
13.28956032 -3.064277887 -4.453211784
13.29119968 -3.107630968 -4.456967831
13.29084015 -3.150583982 -4.46009779
13.29220009 -3.194009066 -4.463853836
13.2934103 -3.237472057 -4.467608929
13.29631996 -3.281426907 -4.471992016
13.29909039 -3.325431108 -4.476374149
13.30632019 -3.370649099 -4.482319832
13.31155014 -3.415469885 -4.487640858
13.3175602 -3.460593939 -4.493276119
13.32341003 -3.505786896 -4.498908997
13.32911015 -3.551048994 -4.504542828
13.34566021 -3.599347115 -4.513933182
13.34097004 -3.642024994 -4.516123772
13.35262012 -3.689263105 -4.523949146
13.35861969 -3.735070944 -4.529895782
13.36903 -3.782243967 -4.537407875
13.37106037 -3.827162981 -4.542102814
13.37201977 -3.871865988 -4.546484947
13.37557983 -3.917412996 -4.551805973
13.37716007 -3.962476969 -4.556500912
13.37675953 -4.007042885 -4.560569763
13.38440037 -4.054121971 -4.567455769
13.39459991 -4.102119923 -4.575281143
13.3955698 -4.147409916 -4.579976082
13.39455986 -4.192175865 -4.584044933
13.39068985 -4.236115932 -4.587174892
13.39391994 -4.282385826 -4.5928092
13.38885021 -4.326086044 -4.595625877
13.37279987 -4.366258144 -4.594686985
13.38910961 -4.417086124 -4.605016232
13.38360023 -4.460845947 -4.607832909
13.44276047 -4.526441097 -4.63318491
13.4521904 -4.575614929 -4.641324043
13.44258022 -4.618406773 -4.642889023
13.34939003 -4.632222176 -4.615345001
13.89301968 -2.40871501 -4.692829132
13.80247974 -2.436656952 -4.664500237
13.58780956 -2.441761971 -4.593838215
13.61382008 -2.489578009 -4.605297089
13.45421028 -2.503066063 -4.553413868
13.40548038 -2.536575079 -4.539409161
13.35573959 -2.569628954 -4.525085926
13.20545006 -2.582746983 -4.476387024
13.26161957 -2.636003017 -4.49834919
13.19678974 -2.665226936 -4.478932858
13.19598007 -2.707226992 -4.481479168
13.19874954 -2.750019073 -4.48529911
13.19952011 -2.792462111 -4.488481998
13.20573044 -2.83612895 -4.493575096
13.21177959 -2.87986207 -4.498666763
13.22787952 -2.925909996 -4.507260799
13.24289036 -2.971875906 -4.515536785
13.25127029 -3.016489983 -4.521584988
13.25765991 -3.060755014 -4.526996136
13.26389027 -3.105088949 -4.532406807
13.2663002 -3.148612976 -4.536543846
13.25749016 -3.189521074 -4.53686285
13.2688303 -3.235344887 -4.544184208
13.2754097 -3.280131102 -4.54991293
13.2772398 -3.323837996 -4.554050922
13.28719044 -3.369683027 -4.561052799
13.2960701 -3.415385008 -4.567738056
13.30572033 -3.461411953 -4.574739933
13.31429005 -3.507288933 -4.58142519
13.3217802 -3.553006887 -4.587790012
13.32546043 -3.597815037 -4.59288311
13.33174038 -3.643429041 -4.598930836
13.33419991 -3.688103914 -4.603704929
13.34381962 -3.734873056 -4.61102581
13.34597969 -3.779669046 -4.615800858
13.35618973 -3.82686305 -4.623439789
13.35713959 -3.871515989 -4.627895832
13.35702038 -3.915945053 -4.632033825
13.35585022 -3.960139036 -4.635852814
13.36452007 -4.007359028 -4.643174171
13.36940002 -4.053567886 -4.649221897
13.37683964 -4.100678921 -4.656223774
13.38321972 -4.147593021 -4.662909031
13.38309002 -4.192601204 -4.667365074
13.3774004 -4.235929012 -4.669910908
13.38329983 -4.283019066 -4.676596165
13.38994026 -4.330475807 -4.683598042
13.41172981 -4.383020878 -4.69601202
13.41893005 -4.43098402 -4.703331947
13.43315029 -4.481432915 -4.713200092
13.43280983 -4.52716589 -4.717974186
13.43321991 -4.573245049 -4.723066807
13.42897987 -4.617826939 -4.726568222
13.42101955 -4.661181927 -4.728796005
13.81219006 -2.439779043 -4.74693203
13.58016014 -2.441787004 -4.669066906
13.50372028 -2.470835924 -4.645157814
13.48863029 -2.510868073 -4.64257288
13.45483017 -2.547310114 -4.633526802
13.27966976 -2.556380987 -4.575369835
13.17331982 -2.577847958 -4.54112196
13.23404026 -2.631908894 -4.565032005
13.1832304 -2.66387701 -4.550168991
13.1749897 -2.70430994 -4.550168991
13.17774963 -2.747035027 -4.554046154
13.10538006 -2.773931026 -4.531753063
13.11900997 -2.818896055 -4.539506912
13.07979012 -2.852477074 -4.528844833
13.22805977 -2.927350044 -4.583771229
13.23470974 -2.971442938 -4.589262962
13.24398994 -3.016235113 -4.59572506
13.26233959 -3.063241005 -4.605418205
13.26578045 -3.106935978 -4.609941006
13.26815033 -3.150461912 -4.614140987
13.26669979 -3.19314599 -4.617049217
13.26788044 -3.236524105 -4.620925903
13.27167034 -3.280620098 -4.625771999
13.27346992 -3.324310064 -4.629972935
13.28431034 -3.370368958 -4.637403965
13.29957008 -3.417702913 -4.646450996
13.30459023 -3.462541103 -4.651943207
13.31495953 -3.50888896 -4.659374237
13.32699013 -3.555820942 -4.667450905
13.32971954 -3.600392103 -4.672297955
13.33778 -3.646511078 -4.67908287
13.34022045 -3.691198111 -4.683928967
13.34978962 -3.737977028 -4.691359997
13.35647011 -3.784074068 -4.697822094
13.36026001 -3.829466105 -4.703313828
13.35935974 -3.873599052 -4.70719099
13.36557007 -3.919893026 -4.713654041
13.36800003 -3.965184927 -4.718822956
13.39113045 -4.016781807 -4.731422901
13.39503956 -4.062789917 -4.737238884
13.3987999 -4.108860016 -4.743054867
13.39698029 -4.153309822 -4.74693203
13.39500999 -4.197787762 -4.750809193
13.39560032 -4.243150234 -4.755654812
13.40145016 -4.290286064 -4.762440205
13.40172958 -4.335750103 -4.767286777
13.40635014 -4.382726192 -4.773747921
13.41082001 -4.4297719 -4.780210018
13.41781044 -4.47778511 -4.787642002
13.39863014 -4.517115116 -4.785703182
13.43218994 -4.574368 -4.802826881
13.42883015 -4.619248867 -4.806704044
13.48431969 -4.684648991 -4.831904888
14.98771 -2.265727997 -5.228016853
13.61042976 -2.400650978 -4.763041973
13.54257011 -2.43155098 -4.741697788
13.49508953 -2.465790987 -4.727578163
13.44567013 -2.499417067 -4.71280098
13.40452957 -2.534342051 -4.700980186
13.16849995 -2.531606913 -4.620201111
13.24967003 -2.589380026 -4.651723862
13.21387005 -2.624499083 -4.641872883
13.18815994 -2.661478043 -4.635633945
13.16143036 -2.698133945 -4.62906599
13.15678978 -2.739269018 -4.630380154
13.15941048 -2.781964064 -4.634319782
13.16096973 -2.824502945 -4.637932777
13.17162991 -2.869086981 -4.644827843
13.21809959 -2.921710014 -4.664531231
13.22566986 -2.965967894 -4.670442104
13.22848034 -3.009253025 -4.674709797
13.23666954 -3.053855896 -4.680949211
13.24563026 -3.098752975 -4.687517166
13.25168991 -3.143079996 -4.693099022
13.25852013 -3.187693119 -4.699009895
13.25876999 -3.23081398 -4.702621937
13.25979996 -3.274192095 -4.706562996
13.26527023 -3.318753004 -4.712144852
13.26509953 -3.361987114 -4.715756893
13.28125 -3.409476042 -4.725278854
13.29724026 -3.457097054 -4.734801769
13.30393028 -3.502443075 -4.741041183
13.3113699 -3.548105955 -4.747609138
13.32048988 -3.594340086 -4.754833221
13.32124043 -3.63842392 -4.759101868
13.3282299 -3.684308052 -4.765668869
13.34323978 -3.732558012 -4.775191784
13.34171963 -3.776305914 -4.778803825
13.34370041 -3.82111907 -4.78373003
13.35006046 -3.867294073 -4.790297031
13.35354042 -3.912746906 -4.795878887
13.36139011 -3.959599018 -4.803103924
13.36999989 -4.006807804 -4.810656071
13.38656998 -4.056571007 -4.821164131
13.39122009 -4.10287714 -4.827403069
13.39210033 -4.148131847 -4.832328796
13.39192963 -4.19314909 -4.836925983
13.39251041 -4.238489151 -4.841852188
13.39564037 -4.284735203 -4.847763062
13.40400028 -4.332783222 -4.855642796
13.39603043 -4.375645161 -4.85761404
13.40765953 -4.425008774 -4.866807938
13.42090988 -4.475083828 -4.876658916
13.41874981 -4.520155907 -4.88092804
13.42986012 -4.569820881 -4.890121937
13.42381001 -4.613763809 -4.89307785
13.4720602 -4.67660284 -4.916063786
14.88743973 -2.251543999 -5.290106773
14.80965996 -2.286272049 -5.264738083
13.90962029 -2.454161882 -4.959971905
13.53925991 -2.431641102 -4.829452991
13.48165989 -2.464010954 -4.81142807
13.38599968 -2.488982916 -4.779716015
13.32828999 -2.520576 -4.761691093
13.24965954 -2.590006113 -4.738992214
13.15937042 -2.614289045 -4.709282875
13.16236973 -2.656888008 -4.713288784
13.16246986 -2.698961973 -4.716292858
13.1735096 -2.743369102 -4.723302841
13.17978954 -2.786892891 -4.728643894
13.19237041 -2.83186698 -4.736320972
13.19190979 -2.874134064 -4.739326
13.19684029 -2.917645931 -4.74433279
13.19978046 -2.960803032 -4.748672009
13.20258045 -3.004004955 -4.75301218
13.20983982 -3.048312902 -4.759019852
13.21510983 -3.092262983 -4.764360905
13.22665024 -3.137798071 -4.772038937
13.23713017 -3.183212996 -4.779383183
13.23828983 -3.226488113 -4.783388138
13.24571991 -3.271384001 -4.789731026
13.25115967 -3.315896988 -4.795404911
13.2628603 -3.362096071 -4.803417206
13.26891041 -3.406991005 -4.809424877
13.28120995 -3.453615904 -4.817770004
13.28695011 -3.498667955 -4.823779106
13.29164028 -3.543545008 -4.829452991
13.29708958 -3.588728905 -4.835462093
13.29965973 -3.633234024 -4.840468884
13.30570984 -3.678793907 -4.846810818
13.31070042 -3.724170923 -4.85281992
13.31643963 -3.769870996 -4.859161854
13.32384968 -3.81615901 -4.866171837
13.32837009 -3.86174202 -4.872180939
13.33545971 -3.908183098 -4.879190922
13.34689999 -3.956043959 -4.887869835
13.35908031 -4.004282951 -4.896883011
13.37108994 -4.052633762 -4.905895233
13.37300968 -4.098056793 -4.911235809
13.37207985 -4.142693043 -4.915575981
13.37549973 -4.188769817 -4.921584129
13.37965965 -4.235191822 -4.927927017
13.37917995 -4.28024292 -4.932600021
13.38481998 -4.327361107 -4.939610004
13.38671017 -4.373382092 -4.94528389
13.39918995 -4.423001766 -4.954965115
13.40522957 -4.470652103 -4.962308884
13.41110039 -4.518381119 -4.96965313
13.42304993 -4.568314075 -4.979332924
13.4178896 -4.612538815 -4.982670784
13.41168976 -4.656466007 -4.985674858
14.84459972 -2.246506929 -5.366323948
14.73349953 -2.275949955 -5.328368187
14.63630009 -2.306930065 -5.29549408
14.58642006 -2.344952106 -5.279903889
14.55688 -2.386039019 -5.271770954
13.54627991 -2.391418934 -4.913211823
13.52313042 -2.430138111 -4.907451153
13.43694973 -2.457226992 -4.87864399
13.38309956 -2.489835024 -4.861699104
13.33288002 -2.522834063 -4.846109867
13.20405006 -2.540437937 -4.80171299
13.24143028 -2.589785099 -4.818319798
13.19375038 -2.622509003 -4.803747177
13.1967001 -2.665210009 -4.807814121
13.18385983 -2.704739094 -4.806118965
13.18655014 -2.747477055 -4.810185909
13.17897987 -2.788115025 -4.81052494
13.18599987 -2.831892967 -4.816287041
13.18828011 -2.874737978 -4.820353031
13.19410038 -2.918437004 -4.8257761
13.19610023 -2.961374998 -4.829843044
13.19979 -3.004770041 -4.834587097
13.21525955 -3.050966978 -4.843738079
13.2195797 -3.094713926 -4.848821163
13.22375011 -3.138514996 -4.853905201
13.23418999 -3.183912992 -4.861361027
13.2453804 -3.22962594 -4.86915493
13.24820042 -3.273406982 -4.873899937
13.25543022 -3.318377972 -4.880339146
13.26342964 -3.363656044 -4.887116909
13.26397991 -3.407140017 -4.891183853
13.26803017 -3.451607943 -4.896605968
13.27558041 -3.497091055 -4.903384209
13.28205967 -3.542411089 -4.909822941
13.29020023 -3.588293076 -4.916940212
13.28911018 -3.631778955 -4.920668125
13.29242039 -3.676544905 -4.926091194
13.29918957 -3.722381115 -4.932868958
13.30852985 -3.769062042 -4.940662861
13.31952 -3.816353083 -4.94913578
13.32942963 -3.863485098 -4.957270145
13.3400898 -3.910979033 -4.965742111
13.3469696 -3.957504034 -4.972858906
13.35729027 -4.005189896 -4.981331825
13.35484982 -4.049153805 -4.985060215
13.36394978 -4.096724987 -4.99319315
13.36839008 -4.142998219 -4.999631882
13.37627029 -4.190462112 -5.007427216
13.37411022 -4.234888077 -5.01149416
13.38704014 -4.284215927 -5.021321774
13.39352989 -4.331635952 -5.028778076
13.39447975 -4.377383232 -5.034201145
13.40421963 -4.426126957 -5.043012142
13.40664005 -4.472589016 -5.049111843
13.41602993 -4.521512032 -5.057923794
13.42168999 -4.569322109 -5.065380096
13.42362976 -4.615984917 -5.071479797
13.41473007 -4.658998013 -5.073513031
14.75901985 -2.232364893 -5.426407814
14.63889027 -2.260158062 -5.384440899
14.59292984 -2.298923016 -5.369994164
14.46529007 -2.324320078 -5.325274944
14.32001972 -2.346071959 -5.274022102
14.18402004 -2.368500948 -5.226206779
13.64101982 -2.407097101 -5.032542229
13.53376007 -2.431009054 -4.995390892
13.4449501 -2.457663059 -4.965120792
13.35426998 -2.483452082 -4.93416214
13.27830982 -2.511498928 -4.908707142
13.20551014 -2.581757069 -4.887380123
13.17634964 -2.618051052 -4.879467964
13.17654037 -2.660135031 -4.882564068
13.1609602 -2.699038982 -4.879811764
13.15242004 -2.781490088 -4.882907867
13.15666962 -2.824587107 -4.887722969
13.17088032 -2.869935036 -4.896323204
13.2115202 -2.9212749 -4.914897919
13.21623993 -2.964875937 -4.920057774
13.21531963 -3.007283926 -4.923153877
13.22982025 -3.053303003 -4.932097912
13.23318958 -3.096873045 -4.936913013
13.24281979 -3.14200902 -4.94413805
13.24316025 -3.185036898 -4.947920799
13.24427032 -3.228319883 -4.952048779
13.25345039 -3.273664951 -4.959272861
13.25792027 -3.317958117 -4.964776993
13.26132965 -3.362077951 -4.969935894
13.28005028 -3.410219908 -4.980944157
13.27589035 -3.452600002 -4.983352184
13.2788496 -3.496900082 -4.988512039
13.28621006 -3.542459965 -4.995390892
13.29522038 -3.588587999 -5.002958775
13.30136013 -3.634062052 -5.009494781
13.3019104 -3.678105116 -5.013967037
13.30955982 -3.724210978 -5.02119112
13.32787991 -3.77346611 -5.032542229
13.32798004 -3.817698956 -5.037014008
13.36940956 -3.873987913 -5.057309151
13.34574986 -3.911552906 -5.052836895
13.36429977 -3.961551905 -5.064533234
13.3601799 -4.004961014 -5.06762886
13.34961987 -4.046474934 -5.068316936
13.37306023 -4.098415852 -5.082077026
13.38463974 -4.14692688 -5.091363907
13.38259983 -4.191339016 -5.095491886
13.38311005 -4.236626148 -5.100652218
13.3950901 -4.285676003 -5.110282898
13.40421009 -4.333972931 -5.118883133
13.40423965 -4.379449844 -5.124042988
14.7927599 -2.236272097 -5.527782917
14.67376041 -2.264359951 -5.485567093
14.50844002 -2.284455061 -5.425905228
14.44029045 -2.319152117 -5.402876854
14.21207047 -2.327265978 -5.319489956
14.07359982 -2.348958969 -5.269947052
13.96469021 -2.374850988 -5.23156786
14.03767967 -2.431591988 -5.261921883
13.61760998 -2.401916981 -5.105964184
13.58710957 -2.439544916 -5.097240925
13.47630978 -2.462361097 -5.058165073
13.38208008 -2.487601995 -5.025368214
13.30716038 -2.515942097 -4.999898911
13.13971043 -2.567900896 -4.942329884
13.13084984 -2.608017921 -4.941980839
13.1301403 -2.649772882 -4.944773197
13.09694004 -2.768764019 -4.941633224
13.09113979 -2.80952096 -4.942678928
13.1758604 -2.870007992 -4.978267193
13.21457005 -2.920931101 -4.996409893
13.21286964 -2.963099003 -4.999200821
13.21467972 -3.00611496 -5.003387928
13.21909046 -3.049802065 -5.008621216
13.22336006 -3.093544006 -5.01385498
13.22657967 -3.137125015 -5.018739223
13.23419952 -3.181849957 -5.025368214
13.24168015 -3.226650953 -5.031998158
13.24717999 -3.271079063 -5.037929058
13.25253963 -3.315570116 -5.043859959
13.25592995 -3.359664917 -5.0490942
13.27188969 -3.407073975 -5.059212208
13.28133011 -3.452960968 -5.066886902
13.28699017 -3.497984886 -5.073166847
13.29430008 -3.543557882 -5.080144882
13.30237007 -3.589452982 -5.087471962
13.30305004 -3.633456945 -5.092008114
13.30990028 -3.679244995 -5.098986149
13.32472992 -3.727380991 -5.109104156
13.34117985 -3.776153088 -5.119919777
14.76113033 -2.229799032 -5.610811234
14.67566013 -2.26295495 -5.580709934
14.5346899 -2.28688097 -5.529362202
14.24905014 -2.331599951 -5.425248146
14.05642033 -2.344366074 -5.354067802
13.71189976 -2.416795969 -5.230123997
13.55161953 -2.431422949 -5.171338081
13.35439968 -2.480695009 -5.101221085
13.1592598 -2.486219883 -5.028978825
13.11676025 -2.64529705 -5.024728775
13.09576035 -2.682898045 -5.019772053
13.1012001 -2.725920916 -5.025084019
13.09735012 -2.767069101 -5.026854038
13.09428978 -2.808414936 -5.028978825
13.1459198 -2.861709118 -5.052350998
13.19734001 -2.915345907 -5.075724125
13.19381046 -2.957047939 -5.077847958
13.19561958 -3.000000954 -5.082098007
13.19820023 -3.043203115 -5.08670187
13.2042799 -3.087301016 -5.092721939
13.21022034 -3.131464958 -5.098742008
13.19964027 -3.171761036 -5.098388195
13.21074963 -3.217333078 -5.106533051
13.21170998 -3.260538101 -5.1107831
14.05986023 -2.343836069 -5.446423054
14.00016022 -2.378051043 -5.425940037
10.69956017 27.98862076 -7.787080765
13.62798023 42.14287949 -7.715077877
14.5211401 30.21187019 -7.256764889
14.56647968 30.06957054 -7.233157158
14.60369015 30.16806984 -7.476764202
14.57616997 30.09980965 -7.668917179
23.90402031 -30.61967087 -6.761631012
31.22079086 -29.53195 -5.627173901
31.25857925 -29.74994087 -5.650568962
31.18077087 -29.85873032 -5.653051853
30.95107079 -27.88656998 -5.957549095
27.16142082 -26.02536964 -6.30339098
24.74938011 -26.80027008 -6.787899017
24.07349014 -27.05083084 -6.737679958
15.0216198 -2.274755955 -5.145304203
15.12308979 -2.097708941 -5.364880085
15.0353899 -2.132574081 -5.335837841
15.10153961 -2.189245939 -5.361876011
15.05078983 -2.228049994 -5.622334957
40.74137115 -8.765523911 -3.645045042
40.69028854 -8.742329597 -3.903791904
40.66133118 -8.866700172 -3.903603077
40.62799835 -8.876933098 -4.142440796
40.59973907 -8.587366104 -4.404312134
39.81597137 -9.329073906 -5.592554092
39.84766006 -9.339129448 -5.851988792
39.79859924 -9.456531525 -5.84899807
40.01797104 -9.252253532 -6.129264832
39.95280838 -9.366407394 -6.123621941
39.96429825 -9.498539925 -6.129858971
40.05755997 -9.2387743 -6.398873806
40.01747894 -9.358924866 -6.397017002
40.02030182 -9.489175797 -6.402122974
