# .PCD v0.7 - Point Cloud Data file format
VERSION 0.7
FIELDS x y z
SIZE 4 4 4
TYPE F F F
COUNT 1 1 1
WIDTH 274
HEIGHT 1
VIEWPOINT 0 0 0 1 0 0 0
POINTS 274
DATA ascii
-19.26755905 -5.982221127 -5.603726864
-17.69363022 -5.968402863 -5.764220238
-17.63187981 -6.013073921 -5.864705086
-17.60147095 -5.942484856 -5.848385811
-17.61601067 -5.887248039 -5.847177029
-17.78693008 -5.883771896 -5.898249149
-18.06391907 -5.852682114 -5.978634834
-17.54935074 -6.039993763 -5.953338146
-17.60652924 -5.999324799 -5.966554165
-17.5806694 -5.930375099 -5.951494217
-17.64571953 -5.892085075 -5.967475891
-17.79110909 -5.88003397 -6.01081419
-18.94335938 -5.940205097 -6.371036053
-17.53903008 -6.041468143 -6.072038174
-17.57007027 -5.991921902 -6.07641983
-17.57666969 -5.934041023 -6.072350979
-17.76325035 -5.936371803 -6.130880833
-18.44162941 -5.912467957 -6.340902805
-18.62626076 -5.908692837 -6.398495197
-18.7340107 -5.87967205 -6.429481983
-17.50193977 -6.204350948 -6.193284035
-17.5012207 -6.143719196 -6.186281204
-17.51281929 -6.087506771 -6.18373394
-17.53231049 -6.034058094 -6.184052944
-17.54984093 -5.979936123 -6.18373394
-17.57080078 -5.92697382 -6.184689999
-17.61047935 -5.880246162 -6.192327976
-18.14089012 -5.933870792 -6.367074013
-18.21763992 -5.897162914 -6.387763023
-18.34037018 -5.874787807 -6.424685001
-18.62483025 -5.840139866 -6.512217999
-17.38614082 -6.281970024 -6.269662857
-17.44721031 -6.243587971 -6.284848213
-17.46003914 -6.18781805 -6.282587051
-17.47537041 -6.132968903 -6.281293869
-17.49411011 -6.079326153 -6.281293869
-17.50999069 -6.024703026 -6.280324936
-17.52839088 -5.970953941 -6.280324936
-17.5672493 -5.924106121 -6.287755966
-17.5745697 -5.866586208 -6.283878803
-17.82702065 -5.890135765 -6.368206024
-17.9691391 -5.876008987 -6.412793159
-18.11672974 -5.862814903 -6.459318161
-18.33292007 -5.870706081 -6.530397892
-18.4969902 -5.860743999 -6.582738876
-17.16186905 -6.206027985 -6.302779198
-17.45244026 -6.190297127 -6.396037102
-17.46957016 -6.136098862 -6.39538002
-17.49098969 -6.083405018 -6.396365166
-17.50600052 -6.028483868 -6.395051956
-17.62811089 -6.010111809 -6.433143139
-17.53549957 -5.918539047 -6.39242506
-17.56701088 -5.869204044 -6.397349834
-17.8207798 -5.89329195 -6.483712196
-17.93663025 -5.870623112 -6.519505024
-18.33658981 -5.877239227 -6.652494907
-18.37614059 -5.827808857 -6.660377026
-18.44529915 -5.787526131 -6.679093838
-17.47467041 -6.196362019 -6.523857117
-17.48381042 -6.139286995 -6.520184994
-17.49365997 -6.082522869 -6.516847134
-17.54136086 -5.978717804 -6.520853043
-17.5381794 -5.917642117 -6.512842178
-17.57056046 -5.86858511 -6.518181801
-17.78359985 -5.879141808 -6.59095192
-17.83649063 -5.835985184 -6.603971004
-18.08031082 -5.854399204 -6.688089848
-18.30286026 -5.864469051 -6.764197826
-18.32616043 -5.809998035 -6.766201019
-18.3825798 -5.765874863 -6.780554771
-19.51161957 -5.988690853 -7.185795784
-19.53801918 -5.931265831 -7.188799858
-19.55161095 -5.869941235 -7.187130928
-19.55507088 -5.805637836 -7.181789875
-17.44107056 -6.243072987 -6.631106853
-17.45660019 -6.188276768 -6.629752159
-17.47016907 -6.13282299 -6.627717972
-17.41514969 -6.053557873 -6.599588871
-17.57152939 -6.04755497 -6.65211916
-17.51697922 -5.968737125 -6.62432909
-17.54323006 -5.917674065 -6.627378941
-17.56575966 -5.865314007 -6.629074097
-18.14331055 -5.934660912 -6.834448814
-18.23841095 -5.903886795 -6.863594055
-18.25823021 -5.848478794 -6.864272118
-18.27249908 -5.791298866 -6.862915993
-18.29557037 -5.736900806 -6.86495018
-17.46489906 -6.679860115 -6.808206081
-17.45722008 -6.615598202 -6.797197819
-17.47127914 -6.559699059 -6.794789791
-17.49131966 -6.506066799 -6.794789791
-17.48829079 -6.443932056 -6.785846233
-17.4815197 -6.380589008 -6.775527
-17.43655014 -6.303620815 -6.750415802
-17.42752075 -6.239967823 -6.739408016
-17.44038963 -6.18427515 -6.736999989
-17.45484924 -6.129183769 -6.735280037
-17.47623062 -6.07652998 -6.736311913
-17.48679924 -6.020133018 -6.733215809
-17.53185081 -5.97554493 -6.743535995
-17.55810928 -5.924431801 -6.746632099
-17.66614914 -5.900581837 -6.781373978
-18.07822037 -5.976635933 -6.933416843
-18.17411041 -5.946550846 -6.963344097
-18.1842308 -5.888162136 -6.960247993
-18.2048893 -5.833205223 -6.961279869
-18.22896957 -5.779313087 -6.963687897
-18.22599983 -5.716896057 -6.955776215
-17.45111084 -6.737820148 -6.922332764
-17.44894028 -6.675540924 -6.91326189
-17.44742966 -6.613670826 -6.904540062
-17.43693924 -6.548577785 -6.892327785
-17.42620087 -6.483612061 -6.880115986
-17.42490959 -6.422338009 -6.871743202
-17.41371918 -6.357597828 -6.859530926
-17.41375923 -6.297132015 -6.851856232
-17.42329025 -6.240200996 -6.848018169
-17.52578926 -6.155851841 -6.873486996
-17.47290039 -6.077114105 -6.845226765
-17.49501038 -6.024700165 -6.84662199
-17.51873016 -5.972812176 -6.848715782
-17.54496002 -5.92173481 -6.851856232
-17.64304924 -5.894611835 -6.883255959
-17.76337051 -5.874300957 -6.923379898
-17.93449974 -5.869925976 -6.983390808
-18.00591087 -5.832205772 -7.004323959
-18.08262062 -5.795820236 -7.027351856
-18.18428993 -5.766952038 -7.060149193
-17.55117035 -6.654613018 -7.06556797
-17.50495911 -6.575745106 -7.038653851
-17.55397987 -6.532772064 -7.050341129
-17.57305908 -6.478562832 -7.049985886
-17.4593792 -6.254743099 -6.980576992
-17.44146919 -6.188016891 -6.965703964
-17.44890022 -6.130448818 -6.961100101
-17.46850967 -6.077195168 -6.961453915
-17.47293091 -6.01870203 -6.955789089
-17.53113937 -5.978648186 -6.971724033
-17.5210495 -5.915265083 -6.960391998
-17.57637024 -5.873929977 -6.97526598
-17.63958931 -5.834955215 -6.993326187
-17.84227943 -5.841320992 -7.06698513
14.60284042 30.38183975 -7.297813892
14.59630013 30.13112068 -7.248044968
14.66252041 30.03264046 -7.235071182
27.14432907 -26.00900078 -6.299400806
24.37447929 -28.97508049 -6.344954014
24.13079071 -26.94828987 -6.730505943
24.04800987 -27.02219009 -6.730505943
24.45786095 -26.82571983 -6.971067905
24.37015915 -26.89480019 -6.969551086
24.28622055 -26.96799088 -6.969172001
25.46825027 -1.958516002 -5.998299122
25.48830986 -2.038738012 -6.004509926
25.46447945 -2.115474939 -6.000370026
25.42975044 -2.191165924 -5.99369812
25.43357086 -2.270124912 -5.996229172
25.46622086 -2.351813078 -6.005661011
25.34629059 -1.482303977 -6.121141911
25.33575058 -1.637735963 -6.120905876
25.08517075 -2.631222963 -6.229949951
25.05499077 -1.380027056 -6.360579014
25.00064087 -2.5347929 -6.369723797
24.99757004 -2.611985922 -6.370960236
24.98172951 -1.382228971 -6.495554924
24.80861092 -1.525390983 -6.452589035
24.78354073 -1.60018599 -6.447280884
24.78430939 -1.676604986 -6.448797226
24.78676987 -1.753180981 -6.450819016
24.78416061 -1.829431057 -6.45157814
24.78421974 -1.905904055 -6.453094006
24.79273033 -1.98308897 -6.456884861
24.79809952 -2.060105085 -6.459918022
24.80997086 -2.13775301 -6.464719772
24.81583023 -2.214977026 -6.468006134
24.83684921 -2.293680906 -6.475336075
24.86244965 -2.3729949 -6.483929157
24.90608025 -2.454289913 -6.49732399
24.89650917 -2.530493975 -6.496819019
24.96272087 -2.614624977 -6.516280174
24.95746994 -2.691509008 -6.517037868
24.98971939 -1.222046971 -6.649534225
24.91929054 -1.295250058 -6.631710052
24.82549095 -1.366757035 -6.607686996
24.83564949 -1.443755031 -6.611561775
24.77998924 -1.51681602 -6.597870827
24.77329063 -1.592708945 -6.597353935
24.74998093 -1.667471051 -6.59244585
24.74378014 -1.743327022 -6.592187881
24.7479496 -1.819939971 -6.594770908
24.74802971 -1.896299958 -6.596321106
24.7459507 -1.972524047 -6.597353935
24.75614929 -2.049788952 -6.601746082
24.77477074 -2.127878904 -6.608461857
24.78544044 -2.20541811 -6.613111019
24.8026104 -2.283662081 -6.619568825
24.81856918 -2.361941099 -6.625769138
24.84581947 -2.441473007 -6.63506794
24.86319923 -2.520220041 -6.641784191
24.86879921 -2.597892046 -6.645401001
24.88281059 -2.676552057 -6.651341915
24.88504028 -2.754048109 -6.654182911
24.83040047 -2.825139999 -6.641784191
25.14319992 -1.154113054 -6.845151901
24.91988945 -1.220497966 -6.78498888
24.8852005 -1.295341969 -6.776546001
24.85125923 -1.370038986 -6.768364906
24.78434944 -1.442633986 -6.751214027
24.76440048 -1.517722011 -6.746992111
24.74518967 -1.592761993 -6.743033886
24.72767067 -1.667827964 -6.739603996
24.71954918 -1.743479967 -6.73881197
24.71793938 -1.819594026 -6.73986721
24.71896935 -1.895935059 -6.741714001
24.71784019 -1.972146034 -6.743033886
24.73475075 -2.049880981 -6.749367237
24.75428963 -2.127985954 -6.756491184
24.76494026 -2.205460072 -6.761240959
24.75997925 -2.281604052 -6.761768818
24.78263092 -2.360389948 -6.769948959
24.83286095 -2.442071915 -6.785780907
24.8396492 -2.519706011 -6.789739132
24.8461895 -2.597404957 -6.79369688
24.84482002 -2.674341917 -6.795545101
24.85087967 -2.752144098 -6.799501896
24.99497032 -1.218565941 -6.960546017
24.86705017 -1.288807988 -6.925790787
24.80433083 -1.36187005 -6.909356117
24.78175926 -1.436902046 -6.904236794
24.74360085 -1.510869026 -6.894806862
24.71194077 -1.585047007 -6.887262821
24.68869972 -1.659626007 -6.882143974
24.69309998 -1.73603797 -6.884839058
24.70783043 -1.813269019 -6.890495777
24.72806931 -1.891047001 -6.897770882
24.70487976 -1.965527058 -6.892920971
24.74959946 -2.045516968 -6.907200813
24.75087929 -2.122097015 -6.909356117
24.7548008 -2.198959112 -6.912320137
24.75657082 -2.275688887 -6.9147439
24.73797035 -2.350537062 -6.911510944
24.82265091 -2.435452938 -6.937376022
24.86009026 -2.516155958 -6.95003891
24.89344025 -2.596712112 -6.961624146
24.93419075 -2.678318977 -6.975365162
25.05220985 -2.768774033 -7.010929108
24.93642998 -2.83343792 -6.980752945
24.90674019 -1.301444054 -7.092096806
24.76823044 -1.370411992 -7.053602219
24.74087906 -1.445047975 -7.047002792
24.74015999 -1.521180987 -7.048101902
24.79103088 -1.60066998 -7.064051151
24.81574059 -1.678732038 -7.072575092
24.84211922 -1.757097006 -7.081647873
15.45958042 34.32331848 -7.70837307
40.70825958 -8.758399963 -3.642051935
40.69807816 -8.744002342 -3.904546022
40.67105865 -8.868821144 -3.904546022
40.63092041 -8.877570152 -4.142741203
40.6198616 -8.721904755 -4.409420013
40.07027054 -9.259067535 -5.624473095
39.89796066 -9.348283768 -5.604147911
39.89028931 -9.475682259 -5.607149124
40.58916092 -9.773348808 -5.710272789
40.63211823 -9.915678978 -5.720640182
39.95135117 -9.234221458 -5.863101006
39.86212158 -9.342517853 -5.854125977
39.78223038 -9.452642441 -5.846576214
39.97653961 -9.242675781 -6.122879982
39.92681885 -9.360313416 -6.119613171
39.92773819 -9.489850998 -6.12421608
40.02386093 -9.231001854 -6.393458843
39.99728012 -9.354199409 -6.393767834
39.98472977 -9.480742455 -6.396399021
