# .PCD v0.7 - Point Cloud Data file format
VERSION 0.7
FIELDS x y z
SIZE 4 4 4
TYPE F F F
COUNT 1 1 1
WIDTH 444
HEIGHT 1
VIEWPOINT 0 0 0 1 0 0 0
POINTS 444
DATA ascii
10.62666035 27.79792976 -7.733751774
14.93247986 30.37264061 -6.926402092
12.28295994 34.3415184 -7.686240196
12.38426971 34.29264069 -7.683753014
12.47836018 34.22415161 -7.676915169
14.60525036 30.14958954 -7.252511978
14.65351963 30.01420021 -7.230605125
14.62835026 30.2190094 -7.489456177
24.45347023 -36.60168839 -6.022781849
24.38928032 -36.99504089 -6.063022137
24.38537979 -37.74048996 -6.148685932
24.48349953 -38.14860916 -6.203248978
24.4409008 -38.34049988 -6.222345829
25.59742928 -35.42311096 -6.251578808
25.30545044 -35.47555923 -6.233201981
24.42222023 -36.07852173 -6.231919765
24.3694191 -36.23952103 -6.246878147
24.39118004 -36.51329041 -6.281352043
24.33213043 -36.66794968 -6.29516983
24.37314034 -36.9754715 -6.335342884
24.36206055 -37.20658112 -6.362267017
24.35843086 -37.45124054 -6.391469955
25.47843933 -35.26300049 -6.494277
25.31822968 -35.26869965 -6.480913162
25.15477943 -35.2689209 -6.466657162
25.04417038 -35.34270096 -6.466063023
24.90032959 -35.36923981 -6.456855774
24.74408913 -35.37739182 -6.444382191
24.64051056 -35.46044922 -6.445717812
24.43925095 -35.63544083 -6.450172901
24.39439964 -35.8050499 -6.46739912
24.28222084 -35.87644958 -6.466804981
24.29817963 -36.62166977 -6.561102867
24.28644943 -37.09603882 -6.619612217
24.90113068 -35.10112 -6.700714111
24.84967041 -35.25728989 -6.716030121
24.69662094 -35.26942825 -6.703807831
24.58942986 -35.34666061 -6.704116821
24.48086929 -35.42192841 -6.704116821
24.37039948 -35.49443054 -6.703652859
31.1991806 -29.51151085 -5.623252869
30.97681046 -27.90975952 -5.962534904
24.19543076 -29.11932945 -6.106746197
24.1380291 -29.23224068 -6.114918232
27.12723923 -25.99262047 -6.29541111
24.23677063 -28.99147034 -6.332152843
24.05192947 -27.02659988 -6.731609821
27.92731094 6.177758217 -4.078125
27.86973953 6.075394154 -4.066871166
27.87453079 5.897511959 -4.062170029
27.89249039 5.811965942 -4.062170029
27.85493088 5.715025902 -4.054049015
27.87815094 5.630716801 -4.054903984
27.84383965 5.53493309 -4.047354221
27.86173058 4.91904211 -4.033535957
27.98007011 4.851466179 -4.04863596
27.99579048 4.765768051 -4.048779011
27.99465942 4.677246094 -4.046498775
27.81285095 6.150371075 -4.238862038
27.70018959 6.036372185 -4.218666077
27.72340965 5.952398777 -4.219408989
27.74057007 5.86711216 -4.219260216
27.74391937 5.778952122 -4.217032909
27.75667953 5.692813873 -4.216289997
27.77498055 5.607827187 -4.21643877
27.77750015 5.519696236 -4.214210987
27.54151917 4.947655201 -4.163424015
27.50690079 4.85436821 -4.155850887
27.53627968 4.772489071 -4.158078194
27.53812027 4.685829163 -4.156147957
27.5328598 4.598062992 -4.153178215
27.54097939 4.512611866 -4.152287006
27.57813072 4.431862831 -4.155850887
27.57401085 4.344461918 -4.153178215
27.60870934 4.263166904 -4.156445026
27.66468048 4.18495512 -4.162979126
27.69401932 4.102525234 -4.165503025
27.76911926 4.026627064 -4.175006866
27.64084053 6.128615856 -4.394909859
27.69039917 6.050533772 -4.399860859
27.67598915 5.958484173 -4.394600868
27.69704056 5.874162197 -4.395064831
27.48670006 5.74149704 -4.358552933
27.35032082 5.625501156 -4.333953857
27.32773972 5.533526897 -4.32761097
27.29323959 5.439428806 -4.319412231
27.31949043 5.357570171 -4.320959091
27.30573082 5.267929077 -4.316163063
27.33341026 5.186340809 -4.318018913
27.32102966 5.097206116 -4.313531876
27.34042931 5.014073849 -4.31415081
27.34304047 4.927894115 -4.312139988
27.35997963 4.844327927 -4.312448978
27.37568092 4.760534763 -4.312603951
27.39599991 4.677523136 -4.313531876
27.39365959 4.590675831 -4.310903072
27.41151047 4.50725317 -4.311521053
27.4378891 4.425179005 -4.313531876
27.45035934 4.340825081 -4.313377857
27.45965004 4.255982876 -4.312758923
27.49015999 4.174386978 -4.315544128
27.51553917 4.091917992 -4.317554951
27.55337906 4.011180878 -4.321578026
27.64673996 3.938189983 -4.33441782
27.70015907 6.040483952 -4.563292027
27.68382072 5.948009014 -4.557522774
27.72994041 5.868975163 -4.562170029
27.31683922 5.694045067 -4.490708828
27.16592979 5.575682163 -4.462830067
27.16839981 5.489378929 -4.460426807
27.1531601 5.399649143 -4.45513916
27.14344978 5.311202049 -4.450812817
27.14603996 5.225289822 -4.448569775
27.13769913 5.137392998 -4.444563866
27.12519073 5.048872948 -4.439918041
27.14541054 4.966518879 -4.440719128
27.16926003 4.884787083 -4.442161083
27.17536926 4.799863815 -4.440719128
27.19094086 4.716638088 -4.440878868
27.19555092 4.631537914 -4.439277172
27.2213192 4.550034046 -4.441198826
27.23904991 4.46713686 -4.441841125
27.24482918 4.382294178 -4.440557957
27.25716972 4.298533916 -4.440398216
27.27997971 4.216397762 -4.442000866
27.3113308 4.135490894 -4.445044994
27.33756065 4.05370903 -4.447288036
27.42898941 3.981302977 -4.460267067
27.68128967 6.034310818 -4.737792015
27.70352936 5.950185776 -4.738457203
27.72455025 5.865777016 -4.738955021
27.72697067 5.777472973 -4.736295223
27.10173035 5.473888874 -4.622745037
27.0497303 5.377065182 -4.610940933
26.9828701 5.27777195 -4.596642971
27.00765038 5.196641922 -4.598138809
27.02055931 5.113208771 -4.597640991
26.98764992 5.021267891 -4.589327812
26.98934937 4.935964108 -4.586999893
26.98786926 4.850172997 -4.584174156
26.99485016 4.765981197 -4.582843781
27.01322937 4.683813095 -4.583508968
27.02260971 4.60008812 -4.582677841
27.03562927 4.517000198 -4.582511902
27.0600605 4.435789108 -4.584341049
27.07840919 4.353531837 -4.585172176
27.11502075 4.274120808 -4.589161873
27.13092995 4.191364765 -4.589661121
27.1543808 4.109732151 -4.591488838
27.17271996 4.027272224 -4.592486858
27.69879913 6.046194077 -4.924403191
27.73069954 5.964087009 -4.92681694
27.74212074 5.877552986 -4.925610065
27.73689079 5.787582874 -4.921471119
27.02846909 5.466886997 -4.788689137
26.94271088 5.363550186 -4.770410061
26.90877914 5.271017075 -4.761443138
26.89290047 5.182284832 -4.755752087
26.86222076 5.090949059 -4.747474194
26.86512947 5.006165981 -4.745233059
26.85807037 4.919639111 -4.741265774
26.86237907 4.835296154 -4.739368916
26.86738014 4.751144886 -4.737645149
26.8789196 4.668189049 -4.737127781
26.89118004 4.585371971 -4.736783028
26.90317917 4.502524853 -4.736437798
26.91978073 4.420444012 -4.736955166
26.94683075 4.340027809 -4.739368916
26.95611954 4.25672102 -4.738679886
26.97197914 4.174452782 -4.739196777
26.99341965 4.093013763 -4.740748882
27.72701073 6.048398972 -5.097849846
27.7415905 5.962479115 -5.097136974
27.7520504 5.875710011 -5.095712185
27.73430061 5.783110142 -5.089121819
26.99187088 5.455729008 -4.945560932
26.83090019 5.337574959 -4.912787914
26.81624985 5.249186993 -4.907087803
26.78198051 5.157217979 -4.897826195
26.75416946 5.066790104 -4.889811039
26.75120926 4.981263161 -4.886426926
26.75861931 4.897750854 -4.885002136
26.75028038 4.811453819 -4.880726814
26.76199913 4.728848934 -4.880193233
26.76862907 4.645377159 -4.878767967
26.78276062 4.563230038 -4.878767967
26.79372025 4.480554104 -4.878232956
26.8121891 4.399127007 -4.879124165
26.82265091 4.31637907 -4.878590107
26.8396492 4.234681129 -4.879302025
26.86030006 4.153521061 -4.880726814
26.88167 4.072421074 -4.882329941
26.90475082 3.991518021 -4.884288788
26.93050003 3.910936117 -4.886783123
26.95309067 3.82981801 -4.88874197
26.98712921 3.750222921 -4.892838955
27.0648098 3.676414013 -4.904951096
27.72306061 6.050543785 -5.271220207
27.73092079 5.963189125 -5.269196987
27.76832008 5.882156849 -5.272875786
26.92386055 5.530895233 -5.104743958
26.66901016 5.393327236 -5.052869797
26.63434029 5.301312923 -5.043119907
26.64179993 5.217875004 -5.041464806
26.63355064 5.131465912 -5.036866188
26.63661003 5.047352791 -5.03447485
26.63458061 4.962368011 -5.031164169
26.60037041 4.871602058 -5.021781921
26.65969086 4.797977924 -5.030243874
26.67428017 4.716165066 -5.030243874
26.68281937 4.63329792 -5.029139996
26.68527985 4.549431801 -5.026933193
26.71558952 4.470298767 -5.030059814
26.73015022 4.388474941 -5.030243874
26.74542999 4.306759834 -5.030611992
26.77113914 4.226677895 -5.033002853
26.79564095 4.146328926 -5.035211086
26.82571983 4.066753864 -5.038521767
26.84973907 3.986166 -5.040729046
26.99305916 3.669485092 -5.058939934
27.03536987 3.590795994 -5.064826012
27.06664085 3.426075935 -5.066666126
27.72396088 6.043612957 -5.440350056
27.73949051 5.957910061 -5.439781189
27.76052094 5.873387814 -5.440350056
26.55817032 5.448950768 -5.196321964
26.47924995 4.926668167 -5.16200304
26.39669037 4.827566147 -5.142852783
26.38624954 4.742043018 -5.137922764
27.82201958 4.912031174 -5.416648865
27.83599091 4.826482773 -5.416459084
27.83518028 4.738423824 -5.413424969
26.77757072 4.389478207 -5.200872898
26.78944969 4.222796917 -5.198029041
26.79840088 4.139988899 -5.197269917
26.80903053 4.057458878 -5.196890831
27.0115509 3.580856085 -5.222678185
27.74575996 6.046306133 -5.624632835
27.77280998 5.963006973 -5.626392841
27.80249023 5.880208969 -5.628740788
27.78199005 5.786883831 -5.62091589
26.46426964 5.427690983 -5.349027157
27.76775932 5.973171234 -5.806364059
27.78021049 5.886734009 -5.805153847
27.80772972 5.803479195 -5.807169914
27.7544899 5.614880085 -5.78862381
27.49696922 4.429782867 -5.692868233
27.45722008 4.336999893 -5.681779861
27.77408028 5.972468853 -5.978260994
27.80088043 5.889056206 -5.980125904
27.81115913 5.802137852 -5.978467941
26.43685913 5.009503841 -5.660163879
26.5539608 4.610926151 -5.669489861
26.8491497 3.649924994 -5.700160027
26.81768036 3.478193045 -5.688762188
27.77666092 5.965894222 -6.14440012
27.79578972 5.880850792 -6.144612789
27.83474922 5.799932003 -6.149291992
26.27498055 5.390843868 -5.798779964
26.32385063 5.232760906 -5.802395821
26.40449905 4.996621132 -5.809840202
26.41010094 4.913802147 -5.807713032
26.45129013 4.753734112 -5.810265064
26.46093941 4.671710014 -5.809202194
26.47418976 4.590341091 -5.808989048
26.49103928 4.509589195 -5.809627056
26.75494957 3.630395889 -5.837490082
26.72430992 3.542773008 -5.828343868
26.79804039 3.4689219 -5.842168808
26.2790699 5.399252892 -5.976721764
26.27543068 5.314541817 -5.972126961
26.27533913 5.230666161 -5.968407154
26.32287025 5.156219959 -5.975627899
26.42513084 4.505883217 -5.971908092
26.44940948 4.426562786 -5.974315166
26.48764038 4.266050816 -5.976941109
26.61335945 3.618673086 -5.983506203
26.63883972 3.538934946 -5.986787796
26.66893005 3.459702969 -5.991165161
26.26250076 5.392254829 -6.139989853
26.24645042 5.305095196 -6.132352829
26.23488998 5.219034195 -6.125840187
26.24599075 5.13758707 -6.124717236
26.26641083 5.057960987 -6.125840187
26.27128029 4.975358963 -6.123369217
26.27684021 4.892952919 -6.121122837
26.28310013 4.810736179 -6.119101048
26.29294014 4.729216099 -6.117978096
26.30157089 4.647511005 -6.116631031
26.31858063 4.567296028 -6.117303848
26.34495926 4.488656998 -6.120223999
26.35861015 4.407811165 -6.120223999
26.38739014 4.329446793 -6.123817921
26.40825081 4.249710083 -6.12561512
26.44041061 4.171707153 -6.130106926
26.46368027 4.092206001 -6.132577896
26.48670959 4.012602806 -6.135048866
26.50852966 3.93275404 -6.137294769
26.5223999 3.851687908 -6.13774395
26.54663086 3.77208209 -6.140664101
26.56772995 3.69196105 -6.142910004
26.60886955 3.614500046 -6.14987278
26.63529015 3.534898996 -6.153467178
26.65471077 3.454293013 -6.155488014
26.30880928 5.399774075 -6.308866978
26.25085068 5.304001808 -6.290923119
26.33065033 5.152173042 -6.302424908
26.24217033 5.051319122 -6.277348995
26.23842049 4.967164993 -6.272747993
26.25927925 4.887712002 -6.274128914
26.25499916 4.803624153 -6.269527912
26.2782402 4.724602222 -6.271597862
26.38077927 4.659530163 -6.292763233
26.37768936 4.57558012 -6.288621902
26.35898018 4.489078045 -6.280799866
26.45421982 4.421824932 -6.300354004
26.41292 4.331666946 -6.287241936
26.45875931 4.255867004 -6.295063019
26.47842026 4.175734043 -6.296673775
26.44397926 4.087195873 -6.285400867
26.47370911 4.008670807 -6.289542198
26.4743309 3.925719023 -6.286781788
26.5209198 3.849509954 -6.295063019
26.61054039 3.529653072 -6.305645943
26.63282967 3.449496984 -6.308405876
26.31184006 5.398406982 -6.477939129
26.24541092 5.300919056 -6.45742178
26.27393913 5.222836971 -6.460487843
26.3046608 4.977725983 -6.456479073
26.32228088 4.813957214 -6.45341301
26.35318947 4.736101151 -6.45742178
26.3857708 4.658439159 -6.461903095
26.43424034 4.41651392 -6.463552952
26.48410988 4.341368198 -6.472515106
26.49155045 4.259170055 -6.471099854
26.51505089 4.179540157 -6.473693848
26.52582932 4.097877026 -6.473221779
26.56517982 4.02054882 -6.47982502
26.59193993 3.608274937 -6.472043037
26.61059952 3.527697086 -6.473928928
26.61454964 3.445167065 -6.472279072
26.28280067 5.390462875 -6.629450798
26.24308968 5.29847002 -6.615217209
26.2573204 5.217554092 -6.614735126
26.25987053 5.134365082 -6.611357212
26.27739906 5.054142952 -6.611839771
26.28325081 4.971696854 -6.609426975
26.30219078 4.891747952 -6.610393047
26.3180294 4.811205864 -6.61063385
26.35463905 4.734387875 -6.61618185
26.35470009 4.650979996 -6.612564087
26.3803196 4.57209301 -6.615458012
26.38274002 4.489182949 -6.612564087
26.44712067 4.416696072 -6.625349998
26.47492027 4.337891102 -6.628967762
26.49193001 4.25726223 -6.62993288
26.51157951 4.177023888 -6.631621838
26.53001976 4.09655714 -6.633069992
26.24931908 5.059420109 -6.77878809
26.30374908 4.986260891 -6.788921833
26.3494606 4.57738781 -6.781754017
26.3547802 4.495060921 -6.779529095
26.36845016 4.414185047 -6.779529095
26.37421989 4.332011223 -6.777552128
26.41226006 4.255081177 -6.783977985
26.41753006 4.172821045 -6.782001019
26.43211937 4.092050076 -6.782495022
26.71677017 3.46707201 -6.831929207
26.23727989 5.050376892 -6.939374924
26.27261925 4.973638058 -6.944683075
26.31501007 4.814601898 -6.947968006
26.54413986 4.688383102 -7.001045227
26.33628082 4.568397999 -6.942154884
26.35017967 4.487577915 -6.942154884
26.35808945 4.405757904 -6.940639019
26.35811996 4.322679996 -6.937099934
26.40564919 4.247324944 -6.94619894
26.43861961 4.169458866 -6.951507092
26.47710991 4.092317104 -6.958331108
26.62729073 4.031923771 -6.994726181
26.49692917 3.929069996 -6.957067013
20.05656052 -0.8542547226 -6.574398994
20.01589966 -0.9140480757 -6.561880112
19.98833084 -0.9742481112 -6.553740978
19.97577095 -1.035074949 -6.550611019
18.94775963 7.919456005 -6.853751183
18.92816925 7.84314394 -6.837835789
18.96266937 7.789359093 -6.841656208
19.08305931 7.770470142 -6.876667976
19.15766907 7.6641469 -6.886536121
19.23698044 7.559280872 -6.898313046
19.2786293 7.507452011 -6.904996872
19.35906029 7.470452785 -6.925685883
19.36063957 7.402900219 -6.918046951
19.4444294 7.366640091 -6.940010071
19.5494709 7.337931156 -6.969611168
19.57278061 7.278250217 -6.969929218
19.64484024 7.236515999 -6.987753868
19.62953949 7.162566185 -6.974386215
18.92983055 8.046941757 -6.980788231
18.96636963 7.857161999 -6.967217922
18.98076057 7.79498291 -6.963664055
19.04314995 7.75241518 -6.977880001
19.2258091 7.553094864 -7.010511875
19.28329086 7.507465839 -7.023112774
19.34773064 7.464281082 -7.03829813
19.36257935 7.401845932 -7.0353899
19.4197197 7.355482101 -7.047990799
19.51927948 7.324797153 -7.076099873
19.60020065 7.286643982 -7.09742403
19.4263401 7.363942146 -7.180846214
19.88990974 -1.215729952 -6.885968208
19.79791069 -1.212113976 -6.98217392
19.74548912 -1.391425967 -6.967820168
19.04356003 7.686359882 -7.355679989
19.70989037 -1.208359003 -7.071341038
19.71525002 -1.330160022 -7.076086044
19.72193909 -1.207286 -7.196568012
19.69125938 -1.387431026 -7.189688206
19.62136078 -1.443017006 -7.165607929
18.35470963 -4.83343792 -6.911402225
19.24765015 -1.889695048 -7.15818882
18.31896019 -4.762217999 -7.004673004
18.30607986 -4.818874836 -7.005371094
18.26313019 -4.867534161 -6.994554996
18.15689087 -4.659119129 -7.056005955
18.18596077 -4.7260952 -7.073005199
18.20121956 -4.789721966 -7.084691048
18.10512924 -4.644111156 -7.155109882
26.58609009 33.42411041 -6.893774986
26.5990696 33.23064041 -6.870543003
40.65568161 -8.747085571 -3.637299061
40.57281876 -8.847398758 -3.895024061
40.62216949 -8.875658989 -4.141840935
40.72328186 -8.613500595 -4.417829037
40.69958115 -8.739023209 -4.418148994
39.85366821 -9.466981888 -5.601965904
39.95135117 -9.234221458 -5.863101006
39.86505127 -9.472319603 -5.858827114
39.99291992 -9.246462822 -6.125403881
39.93643951 -9.362570763 -6.121098042
39.93159103 -9.490765572 -6.124810219
39.97803879 -9.349699974 -6.390674114
39.95877838 -9.474585533 -6.392220974
