# .PCD v0.7 - Point Cloud Data file format
VERSION 0.7
FIELDS x y z
SIZE 4 4 4
TYPE F F F
COUNT 1 1 1
WIDTH 112
HEIGHT 1
VIEWPOINT 0 0 0 1 0 0 0
POINTS 112
DATA ascii
-22.31830025 -4.442752838 -7.308781147
-22.32901955 -4.373712063 -7.30785799
-22.33112907 -4.303024769 -7.304171085
-22.31924057 -4.088051796 -7.287572861
-22.23407936 -4.431376934 -7.430136204
-22.24477005 -4.362595081 -7.429196835
-22.25712013 -4.294148922 -7.428884029
-22.27298927 -4.226376057 -7.429822922
-22.27371025 -4.155758858 -7.42575407
-22.28355026 -4.086891174 -7.424815178
-22.27075005 -4.013959885 -7.416364193
-22.2642498 -3.942303896 -7.410103798
-22.26408005 -3.871865034 -7.406034946
-22.27491951 -3.80338192 -7.405722141
-22.2808609 -3.734083891 -7.40384388
-22.2875309 -3.664938927 -7.4022789
-22.29303932 -3.595638037 -7.400401115
-22.13573074 -4.476618767 -7.541274071
-22.15401077 -4.409612179 -7.542864799
-22.13208008 -4.334700108 -7.530769825
-22.18063927 -4.273593903 -7.542864799
-22.2059803 -4.066876888 -7.538409233
-22.21030045 -3.786581993 -7.523448944
-22.22562981 -3.649003029 -7.520903111
-22.25075912 -3.583059072 -7.525677204
-22.25509071 -3.513742924 -7.523448944
10.78931046 27.48541069 -7.854823112
10.93257999 27.3501606 -8.017276764
14.52579975 30.22155952 -7.259105206
14.57884026 30.09506989 -7.239325047
14.65608978 30.01947021 -7.231881142
34.56567001 -43.74628067 -6.610212803
25.5700798 -47.14019012 -6.698672771
31.29952049 -29.78890038 -5.658019066
31.23232079 -29.90810013 -5.662463188
30.96945 -27.90312958 -5.961111069
29.3831501 8.820004463 -6.840203762
29.47884941 8.651913643 -6.850050926
29.26857948 9.470762253 -7.051012039
29.13602066 9.329224586 -7.011929989
29.14592934 9.2339077 -7.007437229
29.16481972 9.141530991 -7.005190849
29.19087029 9.051435471 -7.004742146
29.21756935 8.961549759 -7.004518032
29.1609993 8.846413612 -6.984302998
29.37774086 9.404385567 -7.251840115
29.37583923 9.304513931 -7.244248867
29.33366966 9.192231178 -7.226765156
29.36173058 9.102192879 -7.226765156
29.42394066 9.022625923 -7.235277176
20.98620987 12.07034969 -7.038640022
21.13167953 11.98206997 -7.062777996
20.81097031 12.38624954 -7.183444977
20.90333939 12.09632969 -7.163434982
20.93619919 12.02976036 -7.162005901
20.99214935 11.97638988 -7.168581009
21.07777023 11.85441017 -7.172867775
21.12659073 11.79669952 -7.177155972
21.12328911 11.70998955 -7.163721085
21.27832985 11.71074009 -7.204311848
20.80734062 12.47710991 -7.344129086
20.79784966 12.38483047 -7.327239037
20.81351089 12.30782032 -7.319375992
20.83054924 12.23180008 -7.312097073
20.80681992 12.13218021 -7.290546894
20.89113998 12.09560966 -7.307146072
20.93478012 12.03526974 -7.309475899
20.95332909 11.96055031 -7.303069115
20.99908066 11.90139961 -7.306272984
21.0388298 11.83880043 -7.307436943
21.07922935 11.77653027 -7.308893204
20.78185081 12.45969963 -7.492032051
20.78797913 12.3768301 -7.480453968
20.80365944 12.29986954 -7.472437859
20.8314209 12.23019028 -7.468874931
20.84408951 12.15178967 -7.459969997
20.85565948 12.0729599 -7.450766087
20.92074966 12.02509022 -7.460859776
20.97917938 11.88803005 -7.455515862
21.01556015 11.82361031 -7.455515862
36.85617828 -13.31735992 -5.357659817
36.81607819 -13.43070984 -5.357797146
36.78363037 -13.29378033 -5.590723991
36.76126862 -13.41335011 -5.593574047
36.71622849 -13.52470016 -5.593004227
36.81452942 -13.18002033 -5.833304882
36.75811005 -13.28719044 -5.830780983
36.71717072 -13.39990044 -5.830780983
36.66474915 -13.50837994 -5.828999043
36.96200943 -13.21035004 -6.108017921
36.82733917 -13.41761017 -6.099199772
36.71183014 -13.50325012 -6.086822987
36.97676086 -13.36093044 -6.343238831
36.89015961 -13.45773029 -6.335388184
36.9919281 -13.49750996 -6.600152016
40.80466843 -8.779143333 -3.650765896
40.739151 -8.883667946 -3.911145926
40.6950798 -8.891586304 -4.14934206
40.75304031 -8.750505447 -4.424003124
39.91968918 -9.224273682 -5.603192806
39.84209824 -9.464234352 -5.600328922
40.43981934 -9.216515541 -5.931052208
40.03910828 -9.254504204 -5.876063824
39.90644836 -9.352907181 -5.86067915
39.82460022 -9.462709427 -5.852844238
39.79249954 -9.584150314 -5.852416992
39.98040009 -9.243567467 -6.123474121
39.93643951 -9.362570763 -6.121098042
39.91233826 -9.486192703 -6.12184
40.00749969 -9.227227211 -6.390829086
40.02325058 -9.360275269 -6.397944927
39.95013046 -9.47253418 -6.390829086
