# .PCD v0.7 - Point Cloud Data file format
VERSION 0.7
FIELDS x y z
SIZE 4 4 4
TYPE F F F
COUNT 1 1 1
WIDTH 54
HEIGHT 1
VIEWPOINT 0 0 0 1 0 0 0
POINTS 54
DATA ascii
10.69713974 27.9822998 -7.785312176
14.95079994 31.10055923 -6.84344101
14.98303986 30.47547913 -6.949987888
12.38228035 34.28712082 -7.682509899
12.48338985 34.23794174 -7.680023193
14.88858986 31.48905945 -7.338716984
14.64618015 30.25267982 -7.080303192
14.82962036 31.09767914 -7.459671021
30.96725082 -27.90114021 -5.960682869
24.81657028 -27.37429047 -6.875644207
24.71010017 -27.42547035 -6.869390011
24.52618027 -27.38985062 -6.841429234
24.37929916 -27.39447021 -6.823770046
30.94263077 8.96686554 -6.386313915
30.9725399 8.769889832 -6.38122797
30.42687035 9.851376534 -6.542975903
30.46899986 9.658872604 -6.539145947
30.46595001 9.452582359 -6.525841236
30.92153931 8.46137619 -6.558701038
30.38022041 9.937069893 -6.731329918
30.30817986 9.810677528 -6.708535194
30.31298065 9.709590912 -6.702939987
30.35848045 9.621570587 -6.706461906
30.33278084 9.511118889 -6.694235802
30.34687042 9.413376808 -6.690919876
30.36251068 9.316212654 -6.688018799
30.39001083 9.222732544 -6.687811852
30.36663055 9.113987923 -6.676414013
30.39726067 9.021616936 -6.677035809
30.43419075 8.931071281 -6.679108143
30.44734955 8.833569527 -6.676000118
30.30120087 8.985110283 -6.839893818
30.32299995 8.890455246 -6.838617802
30.33605003 8.793302536 -6.835428238
30.39200974 8.708536148 -6.842020988
30.42798042 8.617916107 -6.844148159
30.48344994 8.532689095 -6.85074091
30.35144997 10.03083992 -6.731743813
15.5990696 28.96129036 -7.120644093
30.24031067 10.08897972 -6.899446964
40.59130096 -8.851428986 -3.896815062
40.61341858 -8.873747826 -4.140941143
39.89987946 -9.348735809 -5.604421139
39.87102127 -9.471103668 -5.604421139
39.91881943 -9.611934662 -5.615334034
39.93978119 -9.231546402 -5.861391068
39.81592941 -9.460650444 -5.851562023
40.04013062 -9.257376671 -6.132679939
39.94029999 -9.363472939 -6.121692181
39.96044922 -9.497625351 -6.129264832
40.08860016 -9.116493225 -6.399337769
40.05755997 -9.2387743 -6.398873806
40.00881958 -9.356900215 -6.395625114
39.97415924 -9.478233337 -6.394697189
