# .PCD v0.7 - Point Cloud Data file format
VERSION 0.7
FIELDS x y z
SIZE 4 4 4
TYPE F F F
COUNT 1 1 1
WIDTH 185
HEIGHT 1
VIEWPOINT 0 0 0 1 0 0 0
POINTS 185
DATA ascii
14.98952961 30.48866081 -6.95301199
14.85095024 31.40946007 -7.320066929
14.65188026 31.47801971 -7.963381767
14.83530045 31.12018013 -7.906779766
23.91007996 -30.62742996 -6.763354778
30.52404976 42.76499176 -7.851268768
30.61702919 42.61812973 -7.841467857
30.74531937 42.5207901 -7.840874195
23.53487968 40.0871582 -7.798499107
40.88647079 -8.796743393 -3.658159971
40.71678162 -8.878789902 -3.908977032
40.63188934 -8.877782822 -4.142840862
35.81842041 -1.878044963 -4.01692915
40.72192001 -8.76133728 -4.671061993
35.48968887 -0.004257498775 -4.193824768
35.50836945 -0.1131981984 -4.196074009
35.52870941 -0.2222660929 -4.198561192
35.54473877 -0.3314228058 -4.200573921
35.55348969 -0.4405938983 -4.201757908
35.57281113 -0.5499904752 -4.204244137
35.58882904 -0.6594547033 -4.206376076
35.60054016 -0.7689365745 -4.208033085
35.62084961 -0.878716886 -4.210755825
35.64279938 -0.9886841178 -4.213716984
35.66738892 -1.098886013 -4.217031956
35.67972183 -1.208843946 -4.218925953
35.71255875 -1.319658995 -4.223307133
35.74008942 -1.43048799 -4.227096081
35.77621078 -1.541882992 -4.231951237
35.77428818 -1.651772022 -4.232306004
35.79917908 -1.873116016 -4.236567974
35.80912018 -1.983816028 -4.238462925
40.7018013 -8.752229691 -4.926271915
35.58837891 -0.0003866874031 -4.432457924
35.61302185 -0.1096459031 -4.435574055
35.62442017 -0.2189773023 -4.437069893
35.61960983 -0.3282339871 -4.436571121
35.6660614 -0.4380953014 -4.442553997
35.68537903 -0.5478342772 -4.445170879
35.69345093 -0.6574953794 -4.446417809
35.70812988 -0.7673600912 -4.448536873
35.74132156 -0.8777832985 -4.453023911
35.73250961 -0.987267673 -4.45227623
35.73823166 -1.097162962 -4.453398228
35.80709076 -1.209243059 -4.462495804
35.77841949 -1.318179965 -4.459381104
35.79800034 -1.428889036 -4.462371826
35.78749847 -1.538452983 -4.461624146
35.78162003 -1.648195028 -4.461499214
35.75658035 -1.756991029 -4.459006786
35.75399017 -1.866837025 -4.459381104
35.73918152 -1.976027012 -4.458259106
40.69570923 -8.746141434 -5.190772057
35.56621933 -0.1025241986 -4.650457859
35.58060837 -0.2117283046 -4.65241909
35.58673096 -0.3209499121 -4.653334141
35.61729813 -0.4305113852 -4.657516003
35.64852905 -0.5402786136 -4.661828995
35.6615715 -0.649915576 -4.663790226
35.66238022 -0.7593842149 -4.664182186
35.69655991 -0.8696858883 -4.669017792
35.70462036 -0.9794967175 -4.670454979
35.71532059 -1.089455962 -4.67228508
35.71875 -1.199257016 -4.67320013
35.71986008 -1.309016943 -4.673852921
35.73350143 -1.41930604 -4.676206112
35.72105026 -1.52858901 -4.675159931
35.70827103 -1.637809038 -4.674115181
35.7268486 -1.748517036 -4.677251816
35.70051956 -1.857035041 -4.674507141
35.67882156 -1.965680003 -4.67241621
35.4684906 -0.00193247397 -4.845450878
35.51190186 -0.1108848006 -4.851452827
35.53517151 -0.2199807018 -4.854726791
35.55810165 -0.3292204142 -4.858001232
35.57476044 -0.4385296106 -4.86045599
35.59403992 -0.5479897857 -4.863320827
35.61597061 -0.6576274037 -4.866593838
35.64844894 -0.7676393986 -4.871368885
35.66572952 -0.8774911761 -4.87409687
35.67079163 -0.9871274233 -4.875187874
35.68740082 -1.097167969 -4.877915859
35.68386841 -1.206650019 -4.877915859
35.69583893 -1.316705942 -4.88009882
35.70251846 -1.426648021 -4.881598949
35.68906021 -1.535791993 -4.880372047
35.68122101 -1.645140052 -4.879961967
35.71062851 -1.756304026 -4.884737015
35.66748047 -1.863890052 -4.879552841
35.63291168 -1.97171998 -4.875597
39.8376503 -9.205314636 -5.591598988
39.75727844 -9.444086075 -5.588325024
35.44295883 -0.004252402112 -5.062639236
35.48336029 -0.1131187975 -5.068480015
35.5046196 -0.2221156061 -5.071613789
35.51070023 -0.3311057091 -5.072610855
35.53327179 -0.4403435886 -5.076029778
35.56639099 -0.5498911738 -5.081016064
35.57838821 -0.6592612863 -5.08301115
35.59202957 -0.7687529922 -5.085289955
35.61523056 -0.8785784841 -5.088994026
35.62720871 -0.9882519245 -5.09113121
35.64281082 -1.098129034 -5.093836784
35.6570816 -1.208076954 -5.096402168
35.66804123 -1.318014026 -5.098537922
35.67174149 -1.427752972 -5.09967804
35.66423035 -1.537057996 -5.099250793
35.66429138 -1.646695018 -5.099963188
35.64659119 -1.865134001 -5.098966122
35.61994934 -1.973338008 -5.095973969
39.82743073 -9.334386826 -5.84899807
39.79475021 -9.455616951 -5.848427773
39.76554871 -9.577660561 -5.848427773
35.51968002 -0.6604987979 -5.296181202
35.54220963 -0.7700033188 -5.299892902
35.56142044 -0.8795788288 -5.303161144
35.57437897 -0.989114821 -5.305535793
35.5800705 -1.098525047 -5.306872845
35.58937836 -1.208114028 -5.308804035
35.60131836 -1.317880034 -5.311180115
35.61489105 -1.427809 -5.313851833
35.61725998 -1.537366033 -5.314891815
35.62028122 -1.646996021 -5.316080093
35.59629059 -1.755344987 -5.313259125
35.58778 -1.864388943 -5.312812805
39.96498108 -9.240002632 -6.121098042
39.8728981 -9.34767437 -6.111297131
39.90367889 -9.484134674 -6.120502949
39.85998154 -9.603038788 -6.118276119
35.52124023 -0.7501745224 -5.52507019
35.53556061 -0.8595551848 -5.527698994
35.54756927 -0.9689769745 -5.530020237
35.58689117 -1.079319954 -5.536673069
35.58143997 -1.188428044 -5.536364079
35.57564926 -1.297513008 -5.536054134
35.54233932 -1.514724016 -5.532186031
35.52074814 -1.622992039 -5.529555798
35.54718018 -1.733500957 -5.534506798
35.71435928 -1.851506948 -5.561581135
40.00556946 -9.226782799 -6.390520096
39.9799614 -9.350150108 -6.390984058
39.95397186 -9.473445892 -6.391448021
35.91413116 -0.001961641945 -5.790941238
36.02352142 -0.1124878973 -5.808725834
36.02893066 -0.223042801 -5.809688091
36.0340004 -0.3336318135 -5.810648918
36.00616074 -0.4438521862 -5.806323051
36.06679916 -0.5552734137 -5.816417217
36.10046005 -0.6665785909 -5.822185993
36.12390137 -0.777882874 -5.826351166
36.14601898 -0.8893129826 -5.830357075
36.1371994 -1.000038981 -5.829394817
36.13100052 -1.110810995 -5.828915119
36.13629913 -1.221953988 -5.830357075
36.12646103 -1.332594991 -5.829394817
36.03836823 -1.44007194 -5.815775871
36.12944031 -1.554746985 -5.831317902
36.10675049 -1.664765 -5.82843399
36.10049057 -1.775482059 -5.828273773
40.03556061 -9.510191917 -6.640779018
35.97943115 -0.004310922232 -6.027245998
35.96741867 -0.1146567017 -6.025249958
35.96097946 -0.2249656022 -6.024252892
35.96701813 -0.3353556097 -6.025416851
35.98060989 -0.4458824098 -6.027911186
35.99879837 -0.5565720201 -6.031236172
36.01959991 -0.6674320102 -6.035058975
36.04203033 -0.7784674764 -6.039216042
36.08087158 -0.8900601268 -6.046197891
36.05628967 -1.000149012 -6.042541027
36.05009079 -1.110672951 -6.042041779
36.13225174 -1.224171042 -6.056506157
36.15000916 -1.335819006 -6.060163021
36.14868927 -1.446836948 -6.060661793
36.14310074 -1.557690978 -6.060495853
36.11746979 -1.667613983 -6.057004929
36.1683197 -1.781177044 -6.066481113
35.98672867 -0.1045060977 -6.261196136
35.93616104 -0.3248709142 -6.252573013
35.97946167 -1.767179966 -6.481449127
35.77761841 -1.313472986 -6.660973072
35.86180878 -1.426748991 -6.677527905
35.80424118 -1.534490943 -6.66759491
35.820961 -1.645321965 -6.671641827
35.78237152 -1.75357604 -6.665387154
