# .PCD v0.7 - Point Cloud Data file format
VERSION 0.7
FIELDS x y z
SIZE 4 4 4
TYPE F F F
COUNT 1 1 1
WIDTH 184
HEIGHT 1
VIEWPOINT 0 0 0 1 0 0 0
POINTS 184
DATA ascii
14.97945023 30.91686058 -6.812925816
14.97525978 30.45965958 -6.946360111
12.38659954 34.2990799 -7.685204029
12.48875046 34.25263977 -7.683339119
14.50337029 30.17487907 -7.247831821
14.57542992 30.0880394 -7.237623215
14.66294956 30.03351974 -7.235283852
14.72910023 30.4271698 -7.541316986
31.18325996 -30.0450592 -5.670303822
24.50905037 -36.68489075 -6.036559105
24.35873985 -36.94871902 -6.055383205
24.42110062 -37.54259109 -6.128498077
24.4767704 -37.88193893 -6.171875
24.41287041 -38.03855896 -6.18524313
24.47710991 -38.39730072 -6.231620789
25.47998047 -35.4894104 -6.249442101
24.47985077 -35.92572021 -6.218386173
24.41223907 -36.06377029 -6.229354858
24.39481926 -36.27730179 -6.25342989
24.36532974 -36.47460938 -6.274656773
24.38138008 -36.74217987 -6.307991982
24.31320953 -36.88457108 -6.319673061
24.32085037 -37.14365005 -6.351439953
24.32226944 -37.39564896 -6.38192606
24.41530037 -37.7918396 -6.437057018
24.3842392 -37.99901962 -6.459706783
24.85705948 -35.30778122 -6.445569992
24.75598907 -35.39440918 -6.447500229
24.62358093 -35.43608093 -6.441263199
24.43364906 -35.62728119 -6.44868803
24.38269997 -35.78789139 -6.464281082
24.29163933 -35.89036942 -6.469329834
24.30060005 -36.14197922 -6.501406193
24.29598999 -36.61837006 -6.560509205
24.28367043 -36.84466171 -6.587831974
24.2582798 -37.05302048 -6.611888885
24.34288979 -37.43235016 -6.666536808
24.91884995 -35.12609863 -6.705510139
24.8115406 -35.20318985 -6.705665112
24.69038963 -35.26052856 -6.702105999
24.57362938 -35.32395172 -6.699786186
24.46964073 -35.40567017 -6.701023102
24.36034012 -35.47977066 -6.700869083
31.35762978 -29.66139984 -5.652007103
31.32177925 -29.81008911 -5.662069798
30.92679977 -27.86470032 -5.952847958
27.15287971 -26.01717949 -6.301395893
24.0872097 -27.06624985 -6.741542816
25.72649002 3.814836979 -6.753608227
25.73594093 3.413657904 -6.741476059
25.69791985 3.737288952 -6.903196812
25.78290939 3.668911934 -6.923088074
25.82370949 3.593923092 -6.931095123
25.83173943 3.514288902 -6.930319786
25.85005951 3.436039925 -6.932386875
25.86430931 3.357214928 -6.933420181
25.95787048 3.288412094 -6.95589304
25.85279083 3.194540977 -6.924895763
15.58794975 28.94065094 -7.115540028
40.63035965 -8.74163723 -3.635010004
40.62535095 -8.858852386 -3.900115013
38.0517807 7.919554234 -3.869102001
37.96828842 6.454235077 -3.833497047
37.96926117 6.334608078 -3.831595898
38.06821823 5.991532803 -3.835896969
38.09331131 5.87577486 -3.836596966
38.14756012 5.764379978 -3.840297937
38.15029907 5.645133018 -3.838798046
38.21175003 5.534482002 -3.843297958
40.6348114 -8.878419876 -4.143140793
37.93149948 7.915881157 -4.110012054
37.96437073 7.801271915 -4.11097002
37.87409973 7.661698818 -4.098515987
37.57965088 6.409069061 -4.042955875
37.61384964 6.296207905 -4.044551849
37.68302917 6.188998222 -4.049981117
37.72637939 6.077311993 -4.052640915
37.79198074 5.968984127 -4.057751179
37.80815887 5.852707863 -4.057538033
38.04909897 5.770524025 -4.081698895
38.13645172 5.664133072 -4.08925581
38.14281845 5.545532227 -4.088085175
40.72583008 -8.744660378 -4.421021938
37.91880035 7.896906853 -4.340794086
37.91558838 7.77494812 -4.337647915
37.37060165 6.475574017 -4.249802113
37.39910889 6.362391949 -4.250813007
37.41159058 6.246478081 -4.250026226
37.44725037 6.134401798 -4.251935959
37.48551941 6.022638798 -4.254182816
37.56369019 5.91703701 -4.261034966
37.68478012 5.81768322 -4.272830009
37.84492111 5.723585129 -4.289118767
38.0873909 5.640786171 -4.314844131
38.12517166 5.526902199 -4.317203999
38.06914902 5.39958477 -4.308889866
40.7675705 -8.771161079 -4.67634201
37.53770065 5.799221992 -4.491137028
37.84003067 5.727127075 -4.525474072
38.13834 5.652647018 -4.559338093
38.16828156 5.537467003 -4.560876846
38.01279068 7.682199955 -4.83355093
36.87763977 7.100121975 -4.679495811
36.88560104 6.984364986 -4.677751064
36.88051987 6.866263866 -4.674386024
36.89458084 6.751832962 -4.673512936
36.90536118 6.636854172 -4.672266006
36.90990829 6.52083683 -4.670271873
36.93561172 6.408586025 -4.671020031
36.95999146 6.296072006 -4.67164278
38.19572067 5.665474892 -4.812487125
38.2217598 5.549549103 -4.813609123
38.23564911 5.431840897 -4.813234806
40.81502151 -8.771780968 -5.206101894
38.01900101 7.934138775 -5.081766129
36.73567963 7.431438923 -4.902708054
36.73302078 7.313667774 -4.899310112
36.7416687 7.198269844 -4.897480011
36.75286865 7.083450794 -4.89604187
36.76274109 6.968445778 -4.89447403
36.77420044 6.853809834 -4.893167019
36.87358856 6.172319889 -4.890421867
36.89822006 6.060128212 -4.891205788
36.91664124 5.946897984 -4.891205788
38.16363907 5.668170929 -5.048046112
38.22893143 5.558047771 -5.054450035
36.81753159 6.502775192 -5.10967207
36.90921021 5.588666916 -5.101759911
38.12268829 5.652810097 -5.268313885
38.19181061 5.543365955 -5.275543213
39.79198074 -9.452328682 -5.593235016
39.79650116 -9.582481384 -5.598010063
38.11965942 5.649878025 -5.507814884
38.17501831 5.538444996 -5.513370991
39.90795135 -9.224190712 -5.85668993
39.85055923 -9.339808464 -5.852416992
39.80823135 -9.458820343 -5.850421906
39.78672028 -9.582759857 -5.851562023
38.22132111 5.542677879 -5.760984898
40.02183151 -9.253144264 -6.129858971
39.93452072 -9.362118721 -6.120800018
39.91907883 -9.487792969 -6.122879982
36.44638062 7.379542828 -5.784519196
36.53474045 7.280820847 -5.795039177
36.63790131 5.793292046 -5.769976139
40.04793167 -9.236553192 -6.397326946
40.01171112 -9.357575417 -6.396089077
39.9895401 -9.481881142 -6.397171974
36.38993835 7.352458 -5.987537861
36.40942001 7.240203857 -5.987058163
36.42274094 7.12676096 -5.985616207
36.4076004 7.007894993 -5.979526997
36.41827011 6.894145012 -5.977765083
36.4208107 6.778952122 -5.974720001
36.43463898 6.665938854 -5.973598003
36.44617081 6.552556038 -5.972157001
36.46318817 6.440195084 -5.971675873
36.47499084 6.326947212 -5.970394135
36.48450089 6.213356972 -5.968791962
36.50339127 6.10139513 -5.968791962
36.53070068 5.990812778 -5.970233917
36.54598999 5.878240108 -5.969752789
36.5687294 5.766860008 -5.970553875
36.59893036 5.656600952 -5.972637177
36.61708832 5.544437885 -5.972796917
40.04037094 -9.511333466 -6.641580105
36.37347031 7.462905884 -6.221427917
36.40876007 7.353816986 -6.223589897
36.42552185 7.008904934 -6.215110779
36.41196823 6.890519142 -6.209125996
36.43099976 6.778416157 -6.208793163
36.42737961 6.662179947 -6.204637051
36.43891144 6.548820972 -6.203141212
36.44717026 6.434939861 -6.201146126
36.45994949 6.321911812 -6.199982166
36.47042084 6.208535194 -6.198485851
36.48735046 6.096291065 -6.198153019
36.50880051 5.984798908 -6.198651791
36.56008911 5.87808609 -6.204305172
36.59119034 5.538099766 -6.200646877
36.51506042 5.881496906 -6.436055183
36.55044937 5.772209167 -6.439157963
36.57674026 5.661403179 -6.440711021
36.60367966 5.550638199 -6.442434788
