# .PCD v0.7 - Point Cloud Data file format
VERSION 0.7
FIELDS x y z
SIZE 4 4 4
TYPE F F F
COUNT 1 1 1
WIDTH 910
HEIGHT 1
VIEWPOINT 0 0 0 1 0 0 0
POINTS 910
DATA ascii
11.51543045 -18.81131935 -5.99337101
11.43912029 -18.81607056 -5.983606815
11.37835026 -18.84612083 -5.982024193
11.51109982 -18.7942791 -6.125331879
11.42436981 -18.78178024 -6.109704971
11.36818027 -18.81921959 -6.110514164
11.30445004 -18.84410095 -6.107279778
11.24757004 -18.88034058 -6.10781908
11.18714046 -18.91061974 -6.106472015
11.13004971 -18.94651031 -6.107010841
11.44970989 -18.84159088 -6.264723778
11.32876015 -18.77207947 -6.229803085
11.27062035 -18.80592918 -6.22952795
11.21385002 -18.84206963 -6.23007822
11.15404034 -18.87306976 -6.228978157
11.10192013 -18.9171505 -6.23227787
11.04238033 -18.94862938 -6.231452942
11.38356972 -18.71401978 -6.364479065
11.32462025 -18.74638939 -6.363636971
11.26261044 -18.77363968 -6.361111164
11.20398045 -18.80645943 -6.360548973
11.14719963 -18.84239006 -6.361111164
11.09323025 -18.88312912 -6.363356113
11.03573036 -18.91790009 -6.363636971
10.98101044 -18.95747948 -6.365602016
10.92996979 -19.00355911 -6.369812012
10.90970039 -19.10367966 -6.392264843
11.43869019 -18.69329071 -6.496533871
11.35540009 -18.68571091 -6.481668949
11.33119965 -18.77543068 -6.500822067
11.37059975 -18.97203064 -6.557136059
11.18344021 -18.79026031 -6.481956005
11.12574005 -18.82448006 -6.481956005
11.0693903 -18.8610096 -6.482812881
11.01002026 -18.8923893 -6.481956005
10.95681 -18.93437958 -6.484814167
10.90295982 -18.97537994 -6.48738718
10.88269043 -19.07533073 -6.51025486
11.66528988 -18.79356003 -6.692124844
11.58448982 -18.79179955 -6.678730011
11.27431965 -18.93276024 -6.666499138
11.19719028 -18.93515015 -6.65514183
11.07995033 -18.86875916 -6.619616032
11.01189041 -18.88530922 -6.613500118
10.95102978 -18.91403961 -6.611752987
10.89962006 -18.95915985 -6.615829945
11.70450974 -18.8600502 -6.859687805
11.65911961 -18.91620064 -6.867109776
11.58059025 -18.91848946 -6.854938984
11.51208019 -18.93679047 -6.848703861
11.42580032 -18.92542076 -6.831781864
11.32054043 -18.88175964 -6.803281784
11.24888039 -18.89343071 -6.794970036
11.20203972 -18.94676018 -6.801797867
11.12839031 -18.95469093 -6.79229784
11.07452011 -18.99616051 -6.794970036
11.69134998 -18.95701027 -7.0197258
11.50942039 -18.92089081 -6.979835987
11.43356991 -18.92674065 -6.968955994
11.29039001 -18.95149994 -6.952334881
11.23849964 -18.99670982 -6.956264019
11.17098999 -19.01548958 -6.950521946
11.09722996 -19.02331924 -6.940851212
11.42621994 -18.92539024 -7.099164009
11.21619034 -18.96995926 -7.07672596
11.17625046 -19.03545952 -7.088406086
11.11347961 -19.06225967 -7.085639954
11.03491974 -19.06167984 -7.072731018
10.9697504 -19.08389091 -7.06842804
10.87812996 -19.05961037 -7.046913147
10.70224953 -19.15892029 -7.046913147
11.36330032 -18.94220924 -7.238267899
11.23042011 -18.98377991 -7.227625847
11.10988998 -19.04577065 -7.225121975
11.04380035 -19.06661034 -7.220114231
10.97815037 -19.08805084 -7.215418816
10.90635014 -19.0985508 -7.206655979
10.6388998 -19.17281914 -7.184745789
11.46214008 -18.85462952 -7.367165089
11.40767002 -18.89538956 -7.369392872
11.3491497 -18.92948914 -7.369074821
11.18212986 -19.04622078 -7.374166965
11.12460041 -19.0820694 -7.37480402
11.04036045 -19.07180977 -7.357615948
10.9827404 -19.10722923 -7.358253002
10.91749001 -19.12931061 -7.353796005
10.85173988 -19.15033913 -7.349021912
14.53765011 30.24621964 -7.265059948
14.57244968 30.08188057 -7.236135006
14.66423988 30.03614998 -7.23592186
14.58794975 30.3728199 -7.516590118
14.54714966 30.05125999 -7.447659969
31.24893951 -30.10835075 -5.682329178
20.14277077 -40.65398026 -6.774497032
30.96216965 -28.06915092 -5.976353168
30.90003967 -28.1860199 -5.981053829
28.07658958 -24.51519012 -6.936347008
23.53885078 -5.822608948 -3.451459885
23.53816032 -5.89912796 -3.454024076
23.54873085 -5.978621006 -3.458297968
23.55904007 -6.058235168 -3.462570906
23.5230999 -6.125994205 -3.460006952
23.52812004 -6.204442978 -3.463568926
23.63233948 -6.309531212 -3.481945992
23.54025078 -6.36237812 -3.471118927
23.49007034 -6.42621088 -3.466559887
23.57230949 -6.526505947 -3.48180294
23.36050987 -4.428458214 -3.531853914
23.27203941 -4.485698223 -3.520420074
23.28049088 -4.561447144 -3.523834944
23.28771973 -4.637095928 -3.527101994
23.33250999 -4.720479012 -3.536160946
23.33245087 -4.795025826 -3.538388014
23.48801041 -4.902136803 -3.564523935
23.72168922 -5.561718941 -3.620212078
23.77570915 -5.651390076 -3.631201029
23.75729942 -5.724073887 -3.631052017
23.77132988 -5.804674149 -3.63595295
23.73708916 -5.873538017 -3.633428097
23.68346024 -5.937438965 -3.627933979
23.7628994 -6.034894943 -3.64308095
23.7682209 -6.113927841 -3.646792889
23.73595047 -6.183330059 -3.644714117
23.71475983 -6.33344698 -3.647387028
23.71908951 -6.412623882 -3.65109992
23.61631966 -6.462657928 -3.638180017
23.56302071 -6.525845051 -3.632982969
23.71318054 -4.330622196 -3.736152887
23.47162056 -4.435489178 -3.701961994
23.43559074 -4.503189087 -3.698404074
23.3838501 -4.567677975 -3.692369938
23.34744072 -4.634972095 -3.688812017
23.30113983 -4.774570942 -3.68602705
23.26799965 -4.842209816 -3.683088064
23.26464081 -4.916025162 -3.684943914
23.27648926 -4.993179798 -3.68927598
23.28326988 -5.069403172 -3.6928339
23.29171944 -5.146141052 -3.696702003
23.31052971 -5.225356102 -3.702271938
23.32040024 -5.302762985 -3.706449032
23.33289909 -5.380946159 -3.711090088
23.34995079 -5.460380077 -3.716505051
23.35136032 -5.536322117 -3.71944499
23.38612938 -5.620406151 -3.727798939
23.36878014 -5.692127228 -3.727798939
23.36175919 -5.76639986 -3.729501009
23.38707924 -5.848834038 -3.73646307
23.39201927 -5.926381111 -3.740175962
23.38998985 -6.002295017 -3.742805958
23.39059067 -6.078997135 -3.745899916
23.4119606 -6.161292076 -3.752398014
23.38625908 -6.231308937 -3.751315117
23.38801956 -6.308689117 -3.754719019
23.5848999 -6.439494133 -3.789838076
23.84395981 -4.138532162 -3.889542103
23.81171036 -4.208229065 -3.886337996
23.60147095 -4.245780945 -3.853811979
23.47764969 -4.297904968 -3.835546017
23.42359924 -4.362321854 -3.828816891
23.13079071 -4.38125515 -3.782671928
23.12402916 -4.453505039 -3.783792973
23.13157082 -4.528600216 -3.787317991
23.14467049 -4.604938984 -3.791805029
23.15848923 -4.681597233 -3.796451092
23.17495918 -4.75897789 -3.801578045
23.19503975 -4.837310791 -3.807346106
23.20808983 -4.914380074 -3.811992884
23.2392292 -4.995515823 -3.819684029
23.25851059 -5.074365139 -3.825452089
23.26789093 -5.151245117 -3.829617977
23.28087044 -5.229094982 -3.834424019
23.28589058 -5.305319786 -3.837949991
23.29162025 -5.381846905 -3.841634989
23.30960083 -5.461386204 -3.847403049
23.32346916 -5.540174007 -3.852530003
23.33226967 -5.617941856 -3.856856108
23.34369087 -5.696517944 -3.861663103
23.35388947 -5.774981022 -3.866309881
23.36288071 -5.853320122 -3.870795965
23.37542915 -5.932740211 -3.875922918
23.3800602 -6.010324955 -3.879769087
23.38348007 -6.087746143 -3.883454084
23.38187027 -6.163986206 -3.886337996
23.37715912 -6.239511013 -3.888741016
23.37314987 -6.315320969 -3.89130497
23.46697044 -6.417987823 -3.910372019
23.4728508 -6.49706316 -3.914697886
23.99934006 -4.091560841 -4.065799236
23.87107086 -4.145096779 -4.046014786
23.62130928 -4.176425934 -4.005448818
23.5375309 -4.236125946 -3.993313074
23.39542007 -4.284694195 -3.971200943
23.12140083 -4.307868958 -3.926480055
23.11097908 -4.379334927 -3.926978111
23.12067032 -4.454695225 -3.930968046
23.11850929 -4.527882099 -3.932962894
23.1354599 -4.604946136 -3.938282967
23.15022087 -4.681766987 -3.943270922
23.16375923 -4.758522987 -3.948091984
23.18186951 -4.836411953 -3.953744888
23.19585991 -4.913640022 -3.958733082
23.23563004 -4.996596813 -3.968209028
23.2481308 -5.073956013 -3.97303009
23.25844955 -5.151012897 -3.977519035
23.26947021 -5.228396893 -3.98217392
23.27736092 -5.305240154 -3.986330986
23.28883934 -5.383069038 -3.991152048
23.29908943 -5.460793018 -3.995806932
23.31772995 -5.540681839 -4.001957893
23.32171059 -5.617272854 -4.005616188
23.33597946 -5.696513176 -4.0111022
23.3499794 -5.775893211 -4.016588211
23.35988998 -5.854454041 -4.021409988
23.37240028 -5.933857918 -4.026730061
23.38083076 -6.012412071 -4.031384945
23.38707924 -6.090575218 -4.035706997
23.38545036 -6.16682291 -4.038700104
23.38356972 -6.243117809 -4.041693211
23.38334084 -6.319972992 -4.045018196
23.45611 -6.416921139 -4.061143875
23.46187019 -6.573493004 -4.069124222
24.1754303 -4.03849411 -4.252039909
24.05125999 -4.093642235 -4.232209206
23.93667984 -4.149748802 -4.214101791
23.62505913 -4.170441151 -4.160988808
23.46092033 -4.215733051 -4.134088039
23.34128952 -4.268205166 -4.11511898
23.09565926 -4.296568871 -4.073731899
23.10075951 -4.370883942 -4.077009201
23.11335945 -4.446759224 -4.081665039
23.12763977 -4.52312994 -4.086666107
23.13491058 -4.598287106 -4.09045887
23.14966011 -4.675089836 -4.09563303
23.16222954 -4.751632214 -4.100461006
23.17358017 -4.828093052 -4.105116844
23.19816971 -4.907523155 -4.112186909
23.20804024 -4.984046936 -4.116671085
23.22439957 -5.062146187 -4.122362137
23.2395401 -5.140179157 -4.127880096
23.25922012 -5.219430923 -4.134260178
23.27286911 -5.297541142 -4.139605999
23.28339005 -5.375119209 -4.144433975
23.29459953 -5.453034878 -4.149435997
23.30267906 -5.530388832 -4.15391922
23.31241989 -5.608304977 -4.15874815
23.32764053 -5.687730789 -4.164610863
23.33494949 -5.765414238 -4.169094086
23.34676933 -5.844390869 -4.174439907
23.36215019 -5.924464226 -4.180476189
23.36866951 -6.00248003 -4.184958935
23.37111092 -6.079600811 -4.188753128
23.37331009 -6.156793118 -4.192546844
23.38096046 -6.23557806 -4.197374821
23.37218094 -6.310103893 -4.199272156
23.37170982 -6.386970997 -4.202721119
24.26276016 -4.056157112 -4.413709164
24.11244965 -4.107106209 -4.388415813
23.84379005 -4.13664484 -4.341393948
23.39332962 -4.280626774 -4.265695095
23.0947094 -4.299236774 -4.213150978
23.08625031 -4.370985985 -4.214042187
23.08916092 -4.444955826 -4.217070103
23.09762001 -4.52011919 -4.221166134
23.10487938 -4.595183849 -4.225084782
23.12154007 -4.672286034 -4.230783939
23.13408089 -4.74874115 -4.235772133
23.14444923 -4.824914932 -4.240403175
23.1613102 -4.902625084 -4.246281147
23.18271065 -4.981516838 -4.253048897
23.20961952 -5.061844826 -4.260886192
23.22760963 -5.140470982 -4.267119884
23.2472496 -5.219686031 -4.273709774
23.25127983 -5.295573235 -4.277451038
23.26464081 -5.373748779 -4.282971859
23.27296066 -5.450933933 -4.287602901
23.28771973 -5.529811859 -4.293480873
23.29552078 -5.607220173 -4.298111916
23.31071091 -5.686594009 -4.304168224
23.32085037 -5.764933109 -4.309332848
23.33168983 -5.843626976 -4.314676762
23.33654976 -5.920989037 -4.318952084
23.34305 -5.998926163 -4.323583126
23.3512001 -6.07745409 -4.328569889
23.35717964 -6.155587196 -4.333200932
23.35149956 -6.230769157 -4.335693836
23.34936905 -6.307001114 -4.338901043
23.38401031 -6.393401146 -4.349052906
24.5914402 -4.031086922 -4.624446869
23.7949791 -4.12575388 -4.48041296
23.63216972 -4.172245979 -4.451900959
23.48188019 -4.220037937 -4.425779819
23.37986946 -4.275790215 -4.408855915
23.09123039 -4.296251774 -4.356430054
23.08374023 -4.368171215 -4.357533932
23.0808506 -4.441013813 -4.359557152
23.07868958 -4.514068127 -4.361763954
23.0791893 -4.587726116 -4.364523888
23.09198952 -4.66395998 -4.369675159
23.09297943 -4.737944126 -4.372618198
23.10911942 -4.815186977 -4.378503799
23.14425087 -4.896642208 -4.388070107
23.1800499 -4.978565216 -4.397819042
23.19252014 -5.055728912 -4.403152943
23.21240997 -5.134714127 -4.409959793
23.23203087 -5.213870049 -4.416766167
23.2437191 -5.291448116 -4.422101021
23.26280975 -5.370914936 -4.428906918
23.25867081 -5.445171833 -4.431297779
23.27149963 -5.523540974 -4.437001228
23.29171944 -5.603878021 -4.444174767
23.30019951 -5.681598186 -4.449141979
23.30842018 -5.759421825 -4.454108238
23.31067085 -5.835916996 -4.457971096
23.32218933 -5.914896965 -4.463674068
23.32296944 -5.991312027 -4.467352867
23.32254982 -6.067540169 -4.470848083
23.32949066 -6.145824909 -4.475813866
23.33332062 -6.223450184 -4.480228901
23.33024979 -6.299363136 -4.483355999
23.33641052 -6.377905846 -4.488323212
23.79791069 -4.132394791 -4.625217915
23.61977959 -4.176156998 -4.592794895
23.44837952 -4.220081806 -4.561698914
23.37833977 -4.281566143 -4.550511837
23.09095955 -4.302198887 -4.496663094
23.08633995 -4.374666214 -4.498370171
23.07762909 -4.446402073 -4.499318123
23.07159042 -4.518692017 -4.500833988
23.07398987 -4.592710972 -4.504057884
23.08481026 -4.668540001 -4.508987904
23.09441948 -4.744279861 -4.513728142
23.12301064 -4.824132919 -4.522261143
23.14267921 -4.902376175 -4.529087067
23.16785049 -4.982021809 -4.53704977
23.19754028 -5.062915802 -4.545961857
23.21928978 -5.142341137 -4.553357124
23.23310089 -5.220223904 -4.559234142
23.23899078 -5.296495914 -4.563594818
23.24367905 -5.372632027 -4.567767143
23.25576019 -5.450637817 -4.573454857
23.26280975 -5.527634144 -4.578195095
23.27915955 -5.607024193 -4.584832191
23.28759956 -5.684702873 -4.589951038
23.29768944 -5.762959003 -4.595449924
23.30371094 -5.840374947 -4.600190163
23.3075695 -5.91739893 -4.604550838
23.31118011 -5.994502068 -4.608911991
23.3126297 -6.071187019 -4.612894058
23.31858063 -6.149189949 -4.617824078
23.32616997 -6.227791786 -4.623133183
23.32210922 -6.303424835 -4.626165867
23.32633972 -6.38142395 -4.630907059
23.48685074 -4.1544981 -4.718008995
23.23077011 -4.182754993 -4.668716908
23.31718063 -4.272204876 -4.688864231
23.07162094 -4.300425053 -4.64172411
23.0660305 -4.372647762 -4.643289089
23.05828094 -4.444507122 -4.644462109
23.05127907 -4.516547203 -4.645831108
23.06039047 -4.591842175 -4.650526047
23.06926918 -4.667233944 -4.655220985
23.08077049 -4.743317127 -4.660501003
23.09395027 -4.819913864 -4.666173935
23.11264038 -4.897857189 -4.673019886
23.14160919 -4.978228092 -4.682017803
23.17509079 -5.059867859 -4.69199419
23.18721962 -5.137094021 -4.697666168
23.20196915 -5.215087891 -4.703926086
23.21549988 -5.293003082 -4.709990025
23.22686005 -5.370606899 -4.715662003
23.23509979 -5.447659969 -4.720746994
23.23641014 -5.523227215 -4.72446394
23.24604988 -5.6009202 -4.729940891
23.26305008 -5.680584908 -4.736982822
23.27312088 -5.758758068 -4.7426548
23.27342033 -5.834661961 -4.746372223
23.29248047 -5.915449142 -4.754000187
23.2960701 -5.992498875 -4.758499146
23.30224991 -6.070368767 -4.763585091
23.3062706 -6.14783287 -4.768279076
23.31098938 -6.225632191 -4.773169994
23.30314064 -6.300189972 -4.775516987
23.30451012 -6.377346992 -4.779819965
23.34910011 -6.466609955 -4.793120861
23.26210976 -6.519426823 -4.779232979
23.49324036 -4.145872116 -4.870578766
23.37339973 -4.198700905 -4.848203182
23.2582798 -4.251715183 -4.826834202
23.05639076 -4.287940025 -4.787322044
23.04313087 -4.35865593 -4.787322044
23.03734016 -4.430810928 -4.788935184
23.03709984 -4.504098892 -4.791757107
23.03661919 -4.577427864 -4.794579983
23.04454994 -4.652541161 -4.799215794
23.06567001 -4.730502129 -4.806674957
23.07213974 -4.80563879 -4.81111002
23.0860405 -4.882482052 -4.817158222
23.11021042 -4.961718082 -4.825422764
23.14081955 -5.042607784 -4.83509922
23.15393066 -5.119925022 -4.841146946
23.16486931 -5.196940899 -4.846790791
23.18224907 -5.275594234 -4.853847027
23.18885994 -5.351978779 -4.858685017
23.2104702 -5.432025909 -4.86674881
23.21276093 -5.507731915 -4.870780945
23.22528076 -5.586023808 -4.877029896
23.24132919 -5.665371895 -4.884086132
23.25046921 -5.743227005 -4.889729977
23.24509048 -5.817624092 -4.892351151
23.24802017 -5.894207001 -4.896786213
23.28389931 -5.979393005 -4.908277035
23.28820038 -6.056716919 -4.913115025
23.29887009 -6.13586998 -4.919363976
23.29697037 -6.211863995 -4.922993183
23.29388046 -6.287649155 -4.926420212
23.29147911 -6.363730907 -4.930047989
23.35680962 -6.458656788 -4.94819212
24.1956501 -4.042468071 -5.156805992
23.9507103 -4.077109814 -5.106863022
23.80699921 -4.127839088 -5.078680992
23.53796005 -4.155611992 -5.02355814
23.40666962 -4.206519127 -4.99806881
23.29067993 -4.259477139 -4.975894928
23.05437088 -4.289392948 -4.927817822
23.03726006 -4.359375 -4.926989079
23.0362606 -4.432435036 -4.929683208
23.02927971 -4.504403114 -4.931134224
23.03454018 -4.578848839 -4.935277939
23.05010986 -4.655500889 -4.941701889
23.06638908 -4.732489109 -4.948334217
23.06517029 -4.806026936 -4.951234818
23.08094025 -4.883246899 -4.957866192
23.0993309 -4.961225986 -4.965118885
23.13656998 -5.043531895 -4.9765172
23.16205978 -5.123577118 -4.985427856
23.15673065 -5.196969032 -4.987707138
23.1711998 -5.274938107 -4.994338989
23.19399071 -5.355024815 -5.002834797
23.20126915 -5.431734085 -5.008016109
23.2140007 -5.509892941 -5.01444006
23.22456932 -5.587722778 -5.020449162
23.23868942 -5.666596889 -5.02728796
23.25252914 -5.745611191 -5.034125805
23.25946999 -5.823099136 -5.039515018
23.26519966 -5.900444031 -5.044694901
23.28393936 -5.981286049 -5.052776814
23.29104996 -6.059342861 -5.058372021
23.29504967 -6.136752129 -5.063344955
23.29595947 -6.213486195 -5.067698002
23.30228996 -6.291812897 -5.073293209
23.30835915 -6.370237827 -5.078887939
23.42731094 -6.480058193 -5.109350204
23.41390991 -6.553747177 -5.11080122
24.9907093 -4.024228096 -5.470174789
24.14928055 -4.04091692 -5.290027142
24.00769043 -4.0929842 -5.261527061
23.83135986 -4.138203144 -5.225368977
23.67902946 -4.186632156 -5.19453001
23.47759056 -4.225337982 -5.152842999
23.36264038 -4.278689861 -5.130298138
23.04585075 -4.293795109 -5.06308794
23.04121017 -4.366116047 -5.065001965
23.0440197 -4.439927101 -5.068617821
23.03891945 -4.512293816 -5.070531845
23.04317093 -4.586578846 -5.07457304
23.04623032 -4.660738945 -5.078402042
23.05957985 -4.737123966 -5.084568977
23.0688591 -4.81283617 -5.089887142
23.09412956 -4.892092228 -5.09882021
23.09811974 -4.967029095 -5.10307312
23.11618042 -5.04516077 -5.110517979
23.1425705 -5.125351906 -5.119875908
23.15629005 -5.202969074 -5.126469135
23.16975975 -5.280716896 -5.133061886
23.18581009 -5.359258175 -5.140294075
23.19779968 -5.437054157 -5.14667511
23.20573044 -5.514070988 -5.15220499
23.22385025 -5.593705177 -5.160074234
23.23505974 -5.671878815 -5.166454792
23.24316025 -5.749471188 -5.172196865
23.25764084 -5.828828812 -5.179429054
23.26332092 -5.906166077 -5.184745789
23.27442932 -5.985052109 -5.191339016
23.29472923 -6.066524982 -5.200058937
23.29396057 -6.142696857 -5.204101086
23.29577065 -6.219677925 -5.208779812
23.30864906 -6.299787045 -5.216012001
23.30994987 -6.37693882 -5.220691204
23.39197922 -6.476580143 -5.243660927
29.23534012 9.365609169 -6.844799042
29.41197968 8.927113533 -6.853332996
29.55880928 8.77396965 -6.874997139
29.55562973 8.674448967 -6.867993832
24.87042046 -3.997855902 -5.609315872
23.89661026 -4.067327976 -5.396399021
23.74365044 -4.116293907 -5.364450932
23.65019035 -4.174874783 -5.346069813
23.49416924 -4.221706867 -5.313465118
23.39664078 -4.278325081 -5.294209003
23.04764938 -4.287639141 -5.217619896
23.03342056 -4.358147144 -5.217401028
23.02569008 -4.429896832 -5.218714237
23.02732086 -4.503513813 -5.222215176
23.03157997 -4.577753067 -5.226373196
23.04611969 -4.654184818 -5.232937813
23.05562973 -4.729767799 -5.238409042
23.06966972 -4.806448936 -5.244973183
23.08535957 -4.883664131 -5.251976013
23.0988903 -4.960610867 -5.258540154
23.10930061 -5.037063122 -5.26444912
23.12137032 -5.114048004 -5.270793915
23.12747002 -5.189871788 -5.275826931
23.15139961 -5.26989603 -5.285017967
23.15509033 -5.345507145 -5.28961277
23.17277908 -5.424524784 -5.297491074
23.18071938 -5.501450062 -5.303180218
23.19029045 -5.578929901 -5.309308052
23.21003914 -5.659063816 -5.317842007
23.22098923 -5.73726511 -5.324407101
23.23925018 -5.817481041 -5.332722187
23.23925972 -5.893307209 -5.336878777
23.25415039 -5.973071098 -5.344538212
23.26877022 -6.052981853 -5.35219717
23.27745056 -6.131546974 -5.358542919
23.27549934 -6.207458019 -5.362482071
23.27895927 -6.284939766 -5.367733002
23.27556992 -6.360701084 -5.371453762
23.3612709 -6.461206913 -5.395962238
29.19070053 9.445565224 -7.032145023
29.20284081 9.350617409 -7.028100967
29.2369709 9.262745857 -7.029448986
29.25967026 9.171256065 -7.028100967
29.30721092 9.087505341 -7.032817841
29.3368206 8.998120308 -7.033267021
29.35869026 8.906376839 -7.031919956
24.83929062 -3.996053934 -5.759274006
24.37784958 -3.998562098 -5.654380798
23.98110008 -4.084725857 -5.567457199
23.68714905 -4.109461784 -5.501646042
23.65523911 -4.178722858 -5.497154236
23.50996017 -4.227470875 -5.46615696
23.4134903 -4.284315109 -5.446616173
23.04207993 -4.362620831 -5.365756035
23.02380943 -4.43237114 -5.364633083
23.01870918 -4.504671097 -5.366654873
23.02102089 -4.578503132 -5.370472908
23.02979088 -4.653741837 -5.375864029
23.05740929 -4.732997894 -5.385746002
23.06376076 -4.808091164 -5.390687943
23.07846069 -4.885084152 -5.397651196
23.08146095 -4.959754944 -5.401917934
23.09564972 -5.036983013 -5.408882141
23.10767937 -5.113923073 -5.415394783
23.11470032 -5.189917088 -5.420785904
23.12527084 -5.266868114 -5.427074909
23.14413071 -5.345905781 -5.435386181
23.14660072 -5.421331882 -5.439877987
23.16683006 -5.501101017 -5.448637009
23.17637062 -5.578536034 -5.454926968
23.19227982 -5.657699108 -5.462788105
23.20413971 -5.736074924 -5.469750881
23.21385002 -5.814105034 -5.476264954
23.22706985 -5.89320612 -5.48367691
23.24284935 -5.973171234 -5.491763115
23.25554085 -6.052552223 -5.499175072
23.27360916 -6.133556843 -5.507935047
23.26692009 -6.208197117 -5.510855198
23.27222061 -6.286158085 -5.516695023
23.27539062 -6.363696098 -5.522086143
23.28956032 -6.444429874 -5.530170918
23.30114937 -6.601822853 -5.542524815
29.14226913 9.427675247 -7.200539112
29.15436935 9.332882881 -7.196397781
29.17822075 9.24192524 -7.195248127
29.20829964 9.152946472 -7.195707798
29.23251915 9.062140465 -7.194787979
29.31414986 8.98896122 -7.208130836
24.48990059 -4.018826962 -5.826682091
24.23172951 -4.052841187 -5.767788887
23.9841404 -4.087107182 -5.711427212
23.80561066 -4.131875992 -5.671627998
23.62895012 -4.175927162 -5.632289886
23.48671913 -4.225137234 -5.601233006
23.39228058 -4.282276154 -5.581678867
23.02504921 -4.288091183 -5.49656105
23.02326012 -4.36088419 -5.499320984
23.01264 -4.432050228 -5.500010967
23.01516914 -4.505809784 -5.503921986
23.0241394 -4.580955982 -5.509444237
23.03096962 -4.655815125 -5.51450491
23.04326057 -4.731933117 -5.520946026
23.05912018 -4.808963776 -5.528306961
23.06711006 -4.884524822 -5.533829212
23.07961082 -4.961203098 -5.540500164
23.08805084 -5.037172794 -5.546251774
23.10573959 -5.115345001 -5.554303169
23.12221909 -5.193459988 -5.562125206
23.13464928 -5.270860195 -5.569025993
23.14587021 -5.348165989 -5.575697899
23.16345978 -5.427143097 -5.583980083
23.17416 -5.504704952 -5.590651035
23.18176079 -5.581699848 -5.596632004
23.19856071 -5.661099911 -5.604914188
23.21792984 -5.74135685 -5.61388588
23.21626091 -5.816583157 -5.617796898
23.24546051 -5.899753094 -5.629300117
23.24611092 -5.975887775 -5.633901119
23.25497055 -6.05428791 -5.640572071
23.26922989 -6.134287834 -5.64862299
23.26346016 -6.209162235 -5.651844978
23.27154922 -6.287866116 -5.65851593
23.25683975 -6.360517025 -5.659666061
23.34976959 -6.462992191 -5.687272072
24.79995918 -3.993514061 -6.055583954
24.63799095 -4.045022011 -6.018795967
24.3724308 -4.078255177 -5.956539154
24.05709076 -4.10140419 -5.882019997
23.81171989 -4.134794235 -5.824716091
23.63050079 -4.178050995 -5.783211231
23.47123909 -4.224195004 -5.747129917
23.35014915 -4.27640295 -5.720482826
23.05796051 -4.296050072 -5.651622772
23.03512001 -4.364962101 -5.649264812
23.03211975 -4.437633991 -5.651858807
23.03364944 -4.511262894 -5.655632019
23.03685951 -4.585321903 -5.659876823
23.04459 -4.660407066 -5.665300846
23.04636955 -4.734408855 -5.669310093
23.06407928 -4.811840057 -5.67732811
23.06727028 -4.886403084 -5.681807995
23.07781982 -4.962665081 -5.688175201
23.09001923 -5.039452076 -5.695014
23.10576057 -5.117200851 -5.702795982
23.12219048 -5.195308208 -5.710813999
23.13835907 -5.273562908 -5.718832016
23.17415047 -5.356562138 -5.731801987
23.17653084 -5.432068825 -5.736517906
23.14274025 -5.499104023 -5.732274055
23.26557922 -5.603754997 -5.767175198
23.26527977 -5.679255009 -5.771420002
23.27416039 -5.757139206 -5.778022766
23.31389046 -5.842926025 -5.79240799
23.27512932 -5.909162998 -5.787220001
23.26160049 -5.981752872 -5.78839922
23.35411072 -6.081987858 -5.816226006
23.27144051 -6.136760235 -5.800189972
23.35297012 -6.234947205 -5.825422764
23.43128967 -6.332931995 -5.849947929
23.39295006 -6.631655216 -5.860323906
23.42855072 -6.719466209 -5.874474049
24.81163979 -3.997288942 -6.207273006
24.59720039 -4.040212154 -6.156370163
24.36932945 -4.079613209 -6.102089882
24.03239059 -4.099059105 -6.020308018
23.84280968 -4.142048836 -5.975677967
23.66945076 -4.186788082 -5.935149193
23.36136055 -4.206261158 -5.860604763
23.33307076 -4.275115013 -5.856744766
23.08897018 -4.303658009 -5.798364162
23.06897926 -4.373208046 -5.796675205
23.0373497 -4.440474033 -5.792090893
23.03314018 -4.512996197 -5.794504166
23.03060913 -4.585913181 -5.797399044
23.04306984 -4.661934853 -5.804152966
23.04290962 -4.735538006 -5.80777216
23.05203056 -4.81116581 -5.813803196
23.10836029 -4.896951199 -5.831896782
23.1140995 -4.972312927 -5.837203979
23.15563011 -5.055620193 -5.851678848
23.25749969 -5.152659893 -5.881593227
23.3684597 -5.252501011 -5.913919926
23.35317993 -5.32438612 -5.914161205
23.32538986 -5.39338398 -5.91126585
23.33140945 -5.470234871 -5.917056084
23.30695915 -5.539993763 -5.915125847
23.31722069 -5.618063927 -5.922122002
23.34794998 -5.701313019 -5.934424877
23.30962944 -5.767788887 -5.929118156
23.35018921 -5.853902817 -5.944075108
23.39043045 -5.940320969 -5.959033012
23.37491989 -6.012779236 -5.959755898
23.42398071 -6.1020751 -5.977126122
23.41641045 -6.176879883 -5.980021
23.46392059 -6.266467094 -5.997148991
23.51296997 -6.356910229 -6.014760017
23.48213005 -6.425942898 -6.011865139
24.56389046 -4.024684906 -6.309167862
24.43577957 -4.080708981 -6.279261112
23.79066086 -4.123150826 -6.118848801
23.58419037 -4.161927223 -6.068674088
23.38438988 -4.200675011 -6.020228863
23.08258057 -4.219586849 -5.945336819
23.08095932 -4.292510033 -5.948303223
22.97628021 -4.346007824 -5.924574852
23.09985924 -4.442838192 -5.960166931
23.05759048 -4.508107185 -5.952752113
23.05600929 -4.581281185 -5.955965042
23.06084061 -4.65583086 -5.960907936
23.07872009 -4.733179092 -5.969312191
23.11560059 -4.888735771 -5.986614227
23.12607002 -4.96512413 -5.99328804
23.1940403 -5.054209232 -6.015038013
23.19734955 -5.129528999 -6.019980907
23.23633957 -5.212977886 -6.034317017
23.35346031 -5.314565182 -6.069168091
23.40785027 -5.402534008 -6.087706089
23.3939991 -5.474986076 -6.088447094
23.31204033 -5.531292915 -6.071393013
23.47187042 -6.027675152 -6.141341209
23.44569016 -6.174543858 -6.144307137
23.48687935 -6.339755058 -6.165317059
24.62656021 -3.96370697 -6.475587845
24.5264492 -4.02482605 -6.452335835
24.40615082 -4.082015991 -6.42377615
24.3687191 -4.152647018 -6.417203903
23.5900898 -4.1690588 -6.217535019
23.37245941 -4.204578876 -6.163196087
23.26428032 -4.258841038 -6.137920856
23.17024994 -4.315135956 -6.116437912
23.13335037 -4.528950214 -6.117448807
23.14067078 -4.900102139 -6.138679981
23.20498085 -4.988154888 -6.159910202
24.61692047 -3.955231905 -6.62628603
24.54269981 -4.020586014 -6.609495163
24.50452042 -4.091567993 -6.602519989
24.43757057 -4.157493114 -6.587797165
23.5130291 -4.223248005 -6.347307205
23.37071991 -4.271745205 -6.312177181
23.1817894 -4.310753822 -6.264389038
23.27667046 -4.402318954 -6.293836117
23.30290031 -4.48137188 -6.304686069
23.32316971 -4.559514999 -6.313984871
23.25032997 -4.619377136 -6.297968864
23.39509964 -4.947315216 -6.353507042
24.78208923 -3.983660936 -6.826154232
24.84684944 -4.072306156 -6.847527981
24.55928993 -4.102599144 -6.771267891
23.34697914 -4.195264816 -6.448814869
23.17744064 -4.238253117 -6.405275822
23.2629509 -4.327682018 -6.432719231
23.22113037 -4.393652916 -6.42480278
23.2530098 -4.473618984 -6.437469006
23.18522072 -4.534387112 -6.422428131
23.13743973 -4.968886852 -6.43351078
23.30225945 -4.181722164 -6.582814217
23.14722061 -4.227233887 -6.542399883
23.10380936 -4.365963936 -6.537550926
23.12245941 -4.443005085 -6.546710968
23.02392006 -4.570731163 -6.526504993
22.97994041 -4.782247066 -6.526235104
22.95479012 -4.850534916 -6.523271084
23.81454086 -4.133426189 -6.87184906
23.30518913 -4.192477226 -6.731340885
23.08794022 -4.226556778 -6.67194891
22.94820976 -4.273779869 -6.635103226
22.8055706 -4.319647789 -6.59743309
22.83469963 -4.397778034 -6.609807014
22.37955093 -4.524116039 -6.489096165
22.05864906 -4.600298882 -6.403582096
22.02750015 -4.664367199 -6.398633003
22.02718925 -4.734954834 -6.402757168
21.97780037 -4.794928074 -6.392582893
21.9808197 -4.866281986 -6.397808075
22.01362991 -4.944440842 -6.411830902
23.19000053 -4.234536171 -6.852558136
23.13254929 -4.29742384 -6.839366913
22.99098969 -4.344140053 -6.801196098
22.78149986 -4.376989841 -6.742816925
22.31203079 -4.357820988 -6.606975079
22.19499969 -4.405698776 -6.576100826
22.24724007 -4.487052917 -6.595747948
22.09233093 -4.526391029 -6.553647995
22.03417015 -4.58495903 -6.540456772
21.98900986 -4.645989895 -6.531195164
21.95775986 -4.709805965 -6.526143074
21.93477058 -4.775311947 -6.523616791
21.91720009 -4.841963768 -6.522775173
23.44095039 -4.142165184 -7.059956074
23.13104057 -4.160637856 -6.969911098
23.10779953 -4.229685783 -6.966765881
23.0560894 -4.29336977 -6.955046177
23.02680016 -4.361053944 -6.950187206
22.93803024 -4.417185783 -6.92731905
22.91591072 -4.485880852 -6.924746037
21.96932983 -4.440771103 -6.645178795
21.9236908 -4.501598835 -6.6354599
22.01390076 -4.590547085 -6.667190075
21.9744091 -4.652705193 -6.659471989
21.90287971 -4.707818985 -6.642035007
21.58259964 -4.777726173 -6.553133011
21.53231049 -4.835939884 -6.542271137
21.41165924 -4.947049141 -6.514543056
23.10767937 -4.29748106 -7.113495827
22.96157074 -4.416233063 -7.076512814
22.92538071 -4.482251167 -7.069523811
21.92725945 -4.496970177 -6.772497177
21.48535919 -4.475049973 -6.639417171
21.46685028 -4.539956093 -6.637960911
20.91543007 -4.89479208 -6.497601986
20.97199059 -4.975944996 -6.520023823
21.3909893 -4.594283104 -6.760828972
21.00452042 -4.578732014 -6.642375946
20.71718979 -4.582715988 -6.555390835
20.68495941 -4.708899975 -6.554203987
20.59505081 -4.754937172 -6.530157089
20.57663918 -4.81722784 -6.528969765
21.22695923 -4.484992981 -6.836894035
20.9976902 -4.638842106 -6.776150227
20.63083076 -4.624228954 -6.661614895
20.51337051 -4.664044857 -6.628070831
20.42557907 -4.710038185 -6.604197025
20.42588997 -4.776153088 -6.609032154
20.32859039 -4.819228172 -6.582136154
20.23213959 -4.861972809 -6.555541992
20.10042953 -4.895600796 -6.517464161
20.25274086 -4.675629139 -6.672245026
20.12803078 -4.711935997 -6.635670185
20.08756065 -4.767515182 -6.627064228
20.01177025 -4.814433098 -6.606778145
19.80784035 -4.958673954 -6.553913116
19.19235992 -5.371833801 -6.395932198
20.12911987 -4.707025051 -6.771275043
19.95562935 -4.731063843 -6.717440128
19.81266975 -4.761410236 -6.673933029
19.78874016 -4.819923878 -6.67080307
19.80151939 -4.887442112 -6.680192947
18.9523201 -5.236937046 -6.438559055
18.86848068 -5.276125908 -6.415397167
19.84477997 -4.838957787 -6.816827774
19.72826958 -4.938990116 -6.78690815
18.71143913 -5.113810062 -6.471476078
18.75023079 -5.310350895 -6.50171423
18.76464081 -5.439024925 -6.518264771
18.64522934 -5.097389221 -6.557538033
18.62088966 -5.213738918 -6.560122013
19.21390915 -4.871210098 -6.977500916
19.1946106 -4.991859913 -6.981505871
16.48291016 -7.545403957 -6.377649784
16.48022079 -7.605419159 -6.385661125
16.46194077 -7.65832901 -6.387663841
16.43153954 -7.70559597 -6.38499403
19.21342087 -4.935560226 -7.103876114
19.16085052 -4.984769821 -7.089981079
17.28560066 -5.357098103 -6.476906776
17.28165054 -5.414041996 -6.481650829
16.46619987 -6.758896828 -6.369813919
16.44886017 -6.81082201 -6.371170044
16.44524956 -6.868506908 -6.377946854
16.42670059 -6.920023918 -6.378963947
16.41579056 -6.974802017 -6.383030891
16.40727997 -7.030692101 -6.388113976
16.42276955 -7.097043991 -6.402687073
16.41040993 -7.151529789 -6.406414986
16.42974091 -7.220012188 -6.422682762
16.43073082 -7.280674934 -6.43183279
16.44267082 -7.346402168 -6.445388794
16.43464088 -7.403381824 -6.45114994
16.43240929 -7.463106155 -6.459283829
16.41200066 -7.514658928 -6.460299969
16.93889046 -5.823228836 -6.519944191
16.8952198 -5.866238117 -6.509967804
16.91613007 -5.931715012 -6.525104046
16.91732025 -5.990478992 -6.532670975
16.45195007 -6.226425171 -6.402299881
16.40558052 -6.266483784 -6.391636848
16.35981941 -6.364305019 -6.388885021
16.34720993 -6.417212009 -6.391636848
16.37719917 -6.48704195 -6.411243916
16.36507034 -6.540392876 -6.414340019
16.37627983 -6.603209019 -6.426723003
16.38290977 -6.66438818 -6.43738699
16.38670921 -6.724598885 -6.4470191
16.37120056 -6.776996136 -6.449082851
16.37719917 -6.838406086 -6.459745884
16.36478996 -6.892261982 -6.463185787
16.37035942 -6.953815937 -6.473849773
16.36967087 -7.012880802 -6.482104778
16.37306976 -7.073867798 -6.492081165
16.95750046 -5.366416931 -6.579713821
16.94898987 -5.420986176 -6.582853794
16.89126015 -5.459702969 -6.566804886
16.68597984 -5.734669209 -6.526680946
16.43166924 -5.873713017 -6.454460144
16.38624954 -5.914236069 -6.443644047
16.35746002 -5.960630894 -6.43945694
16.33382034 -6.008845806 -6.437364101
16.34692955 -6.070672035 -6.449923992
16.32910919 -6.121123791 -6.450273037
16.30761909 -6.17019701 -6.449225903
16.30261993 -6.225547791 -6.454808235
16.30880928 -6.285305977 -6.464925766
16.30430031 -6.341084957 -6.470858097
16.28215027 -6.390048981 -6.469810963
16.92276001 -5.296735764 -6.672485828
16.85648918 -5.332828999 -6.652655125
16.84450912 -5.38594389 -6.654426098
16.81100082 -5.432131767 -6.647696972
16.78713989 -5.481359005 -6.644864082
16.52512932 -5.451950073 -6.547124863
29.16773987 12.82781029 -7.10607481
29.17246056 12.61682987 -7.088131905
29.20295906 12.52381039 -7.086163044
16.05554962 35.90528107 -7.805614948
16.50358963 35.72425079 -7.8097229
16.61517906 35.67789078 -7.810700893
16.72122955 35.61964035 -7.809135914
40.73553085 -8.764266968 -3.644516945
40.66619873 -8.867760658 -3.904074907
40.62509155 -8.876296043 -4.142140865
40.65290833 -8.729002953 -4.413039207
