# .PCD v0.7 - Point Cloud Data file format
VERSION 0.7
FIELDS x y z
SIZE 4 4 4
TYPE F F F
COUNT 1 1 1
WIDTH 217
HEIGHT 1
VIEWPOINT 0 0 0 1 0 0 0
POINTS 217
DATA ascii
11.45067024 -23.82168961 -5.88766098
11.38131046 -23.86462975 -5.889629841
11.40194988 -24.09789085 -5.938866138
12.50282001 -22.71487999 -5.936717033
12.41018009 -22.71122932 -5.925711155
12.32511044 -22.7209301 -5.918299198
12.25072956 -22.75005913 -5.916052818
12.16893005 -22.76519012 -5.910212994
12.09263992 -22.79037094 -5.907069206
12.0240202 -22.82995033 -5.907742977
11.93766975 -22.83563995 -5.899655819
11.87115002 -22.87907982 -5.901453018
11.78617954 -22.88680077 -5.894041061
11.70261002 -22.89682007 -5.887302876
11.63097954 -22.93000984 -5.886629105
11.56626987 -22.9769001 -5.889548779
11.50139046 -23.02360916 -5.892468929
11.42593956 -23.04917908 -5.889997959
11.36505985 -23.10424042 -5.895164013
11.35011005 -23.25371933 -5.924588203
11.2536602 -23.23669052 -5.911335945
11.32553005 -23.94445992 -6.065643787
12.5648098 -22.66657066 -6.086408138
12.47504044 -22.66835022 -6.076516151
12.41242981 -22.71932983 -6.079967022
12.10715961 -22.8217907 -6.067083836
12.02348042 -22.83300018 -6.060183048
11.94480991 -22.85338974 -6.055811882
11.85851002 -22.8588295 -6.047530174
11.77985954 -22.87866974 -6.043159008
11.69633007 -22.88870049 -6.03625679
11.53641033 -22.92178917 -6.026134968
11.47037983 -22.96578026 -6.028436184
11.40289974 -23.00696945 -6.030045986
11.34171009 -23.06105042 -6.035107136
11.26663971 -23.08699036 -6.032806873
11.18642044 -23.10218048 -6.027746201
11.12434006 -23.15480995 -6.032577038
11.12024975 -23.32938957 -6.069385052
12.5519104 -22.64722061 -6.2432971
12.47673988 -22.67540932 -6.240467072
12.31328964 -22.70710945 -6.228205204
12.24217987 -22.74221039 -6.227497101
12.16685963 -22.76938057 -6.224667072
12.08784008 -22.78943062 -6.219951153
11.99612999 -22.78512955 -6.208631992
11.92166996 -22.81321907 -6.206273079
11.85161972 -22.84968948 -6.206273079
11.77346039 -22.87038994 -6.202027798
11.69085979 -22.88216972 -6.195425987
11.6100502 -22.89712906 -6.18976593
11.54281044 -22.93870926 -6.191415787
11.4632597 -22.95575905 -6.186463833
11.39062023 -22.98646927 -6.185285091
11.32091045 -23.02305031 -6.18575716
11.25405979 -23.06553078 -6.187879086
11.17772961 -23.08857918 -6.184813023
11.10474014 -23.11838913 -6.183633804
11.07892036 -23.24708939 -6.209103107
12.53960991 -22.62896919 -6.391100883
12.45890045 -22.64691925 -6.38531208
12.30119991 -22.68881989 -6.375660896
12.23015976 -22.7238903 -6.374938011
12.14346027 -22.72962952 -6.366012096
12.0763998 -22.77191925 -6.36745882
11.99880028 -22.79426956 -6.363358021
11.91621971 -22.80689049 -6.356603146
11.83726025 -22.82611084 -6.351778984
11.76140022 -22.85110092 -6.348641872
11.68550014 -22.87583923 -6.345506191
11.60472965 -22.89081001 -6.339715958
11.52441978 -22.90637016 -6.334167004
11.45625019 -22.94595909 -6.335373878
11.38580036 -22.9810009 -6.335373878
11.31867027 -23.02279091 -6.337304115
11.24499989 -23.05130005 -6.335615158
11.17041969 -23.07782936 -6.333444118
11.13191986 -23.1793499 -6.352019787
11.08080006 -23.2554493 -6.363598824
12.55418015 -22.63415909 -6.562020779
12.46319008 -22.63352966 -6.550652027
12.38951015 -22.66399956 -6.548427105
12.31252003 -22.68828011 -6.544472218
12.23367023 -22.70889091 -6.539528847
12.14840984 -22.71726036 -6.531125069
12.05685043 -22.71334076 -6.519260883
11.98394012 -22.74422073 -6.517530918
11.90872002 -22.77058029 -6.514564991
11.83479023 -22.79927063 -6.512341022
11.75990963 -22.82599068 -6.509622097
11.68231964 -22.84729958 -6.505420208
11.60778999 -22.87438965 -6.502947807
11.53102016 -22.89690971 -6.499239922
11.45769024 -22.92610931 -6.497509956
11.38644028 -22.95941925 -6.497015953
11.31764984 -22.99772072 -6.498004913
11.2491703 -23.03668976 -6.499239922
11.17337036 -23.0606308 -6.496273994
12.52338982 -22.59185028 -6.707355022
12.44748974 -22.61829948 -6.703816891
12.38035965 -22.66061974 -6.705080986
12.34953022 -22.76993942 -6.726311207
12.25209045 -22.75661087 -6.711145878
12.16580009 -22.76337051 -6.702047825
12.08094025 -22.77238083 -6.693706989
11.98803043 -22.76568031 -6.680817127
11.91812992 -22.80234909 -6.680817127
11.8218298 -22.78812981 -6.665904999
11.73945999 -22.80021095 -6.658827782
11.67473984 -22.84646034 -6.661860943
11.58883953 -22.85110092 -6.652761936
11.51519966 -22.87962914 -6.6507411
11.44192028 -22.90879059 -6.648971081
11.37201977 -22.94466019 -6.649223804
11.29944038 -22.97509956 -6.647960186
11.22846985 -23.00878906 -6.647706985
11.15740967 -23.04225922 -6.647455215
11.13064957 -23.16794968 -6.673993111
11.11322975 -23.31465912 -6.706596851
12.50212002 -22.53885078 -6.851275921
12.46228027 -22.63042068 -6.867549896
12.38722992 -22.65836906 -6.864449978
12.30889988 -22.68013954 -6.859541893
12.23147011 -22.70334053 -6.855151176
12.15629005 -22.73052979 -6.852050781
12.07382011 -22.74382973 -6.844819069
11.99497032 -22.76366997 -6.839652061
11.9116497 -22.77467918 -6.831902981
11.8221302 -22.77338982 -6.82053709
11.7531004 -22.81126976 -6.821053982
11.68041992 -22.84206009 -6.819503784
11.61509037 -22.88726997 -6.82234478
11.54743004 -22.92797089 -6.823894978
11.47358036 -22.95638084 -6.821828842
11.39966011 -22.98454094 -6.81976223
11.31202984 -22.9847393 -6.809430122
11.24061012 -23.01759911 -6.808913231
11.16993999 -23.05197906 -6.808913231
11.15400028 -23.20019913 -6.84275198
11.12395 -23.32062912 -6.868325233
12.45143986 -22.61467934 -7.021946907
12.37644958 -22.64262009 -7.018781185
12.30095005 -22.6694603 -7.015350819
12.22675991 -22.69860077 -7.012712002
12.15116024 -22.72495079 -7.009282112
12.07188034 -22.74423027 -7.003739834
11.99485016 -22.76750946 -6.999517918
11.91958046 -22.79393959 -6.996352196
11.84292984 -22.8175602 -6.99239397
11.76669025 -22.84178925 -6.988698959
11.69215965 -22.86919022 -6.986061096
11.61670971 -22.89463043 -6.982893944
11.53989983 -22.91724014 -6.978936195
11.46522999 -22.9439106 -6.976296902
11.39221001 -22.97378922 -6.974713802
11.31954956 -23.00431061 -6.973394871
11.24637985 -23.03372955 -6.971811771
11.17901993 -23.07506943 -6.973923206
12.37145996 -22.6215992 -7.172852993
12.29189014 -22.64082909 -7.166924953
12.21825981 -22.6708107 -7.16450119
12.14682961 -22.70479012 -7.163423061
12.07034016 -22.72919083 -7.159380913
11.98843002 -22.74311066 -7.152106762
11.91100979 -22.76527977 -7.147527218
11.83312035 -22.78632927 -7.14267683
11.75697994 -22.81053925 -7.138906002
11.68255997 -22.83793068 -7.136210918
11.60721016 -22.86335945 -7.132977962
11.53310966 -22.89112091 -7.130552769
11.45981026 -22.9203701 -7.128666878
11.38601971 -22.94852066 -7.126512051
11.31427956 -22.98074913 -7.125702858
11.24287987 -23.01362038 -7.125164986
11.18859959 -23.08180046 -7.135672092
12.35241032 -22.60946083 -7.327467918
12.2884798 -22.65739059 -7.330768108
12.1851902 -22.63233948 -7.31042099
12.09564972 -22.80010033 -7.340666771
12.02832985 -22.84221077 -7.342317104
11.99693966 -22.95314026 -7.366239071
11.7608099 -22.84168053 -7.306846142
11.44353962 -22.91202927 -7.283749104
11.34372997 -22.88759041 -7.26477623
11.27346039 -22.9222908 -7.26477623
11.18441963 -23.27985954 -7.345615864
14.9580698 30.87273979 -6.803145885
14.97525978 30.45965958 -6.946360111
14.7006197 30.58527946 -7.346945763
14.5860796 30.11001968 -7.242939949
14.66123962 30.03001022 -7.234433174
14.71294022 30.39378929 -7.5330019
14.6521101 30.03280067 -7.454226017
31.1991806 -29.51151085 -5.623252869
31.16020012 -29.65629959 -5.632662773
30.99740028 -27.92831039 -5.966524124
27.12723923 -25.99262047 -6.29541111
27.32478905 -27.82319069 -6.788187027
24.19701958 -27.02224922 -6.749084949
24.1015892 -27.08239937 -6.74559021
24.45190048 -26.81918907 -6.969361782
24.36160088 -26.88534927 -6.967085838
15.57493973 34.29803085 -7.713412762
40.51251984 -8.834248543 -3.889178038
40.80791092 -8.631403923 -4.427089214
40.78414917 -8.75718689 -4.427408218
40.78020096 -8.773879051 -4.677802086
39.79198074 -9.452328682 -5.593235016
39.85536957 -9.340936661 -5.85312891
39.82941055 -9.463853836 -5.853556156
39.98424911 -9.244458199 -6.124067783
39.92874146 -9.360765457 -6.119909763
39.9152298 -9.486878395 -6.122285843
40.00172043 -9.225893974 -6.389901161
39.97034073 -9.347899437 -6.389437199
39.94628143 -9.471622467 -6.390210152
40.00482941 -9.502891541 -6.635652065
