# .PCD v0.7 - Point Cloud Data file format
VERSION 0.7
FIELDS x y z
SIZE 4 4 4
TYPE F F F
COUNT 1 1 1
WIDTH 285
HEIGHT 1
VIEWPOINT 0 0 0 1 0 0 0
POINTS 285
DATA ascii
11.10192966 -19.44816017 -5.947437763
10.8729496 -19.32143021 -5.887767792
10.74997044 -19.38018036 -5.885443211
9.952162743 -19.76061058 -5.875627041
9.932090759 -19.87228012 -5.899909019
9.797171593 -19.90685081 -5.892158985
9.824231148 -20.11737061 -5.945888996
10.86124992 -19.03005028 -5.953789234
10.7866497 -19.03474998 -5.94481802
10.59556007 -19.1053791 -5.93611002
10.53596973 -19.13611031 -5.935582161
10.47535992 -19.16496086 -5.93452692
10.39396954 -19.15546989 -5.921597004
10.33102989 -19.17962074 -5.919221878
10.30035019 -19.26395988 -5.935582161
10.22671986 -19.26820946 -5.927137852
10.13879013 -19.24488068 -5.910250187
10.07701015 -19.27076912 -5.908667088
10.03783989 -19.34012032 -5.92054081
9.976250648 -19.36654091 -5.919221878
9.933913231 -19.43054008 -5.929512978
9.86465168 -19.44201088 -5.923707962
9.820576668 -19.50318909 -5.933207989
9.766301155 -19.54445076 -5.936637878
9.704151154 -19.56999969 -5.935317993
9.668341637 -19.6490097 -5.950358868
9.62917614 -19.72191048 -5.963552952
9.645170212 -19.9093399 -6.011578083
10.75010967 -18.82492065 -6.024298191
10.68327999 -18.84189987 -6.019178867
10.62164021 -18.86787033 -6.01702404
10.55712986 -18.8885994 -6.013250828
10.49820042 -18.91921997 -6.012712002
10.44289017 -18.95639992 -6.014328957
10.37129021 -18.96384048 -6.00651598
10.31626987 -19.00149918 -6.008401871
10.25290012 -19.02372932 -6.005437851
10.19449043 -19.05509949 -6.005437851
10.14004993 -19.09394073 -6.007863045
10.08277035 -19.12751007 -6.008670807
10.03207016 -19.17371941 -6.013521194
9.961221695 -19.18132973 -6.006247044
9.903650284 -19.21437073 -6.007054806
9.850794792 -19.25666046 -6.010827065
9.795592308 -19.29451942 -6.013250828
9.743284225 -19.33824921 -6.017561913
9.688215256 -19.37665939 -6.020256996
9.633431435 -19.41577911 -6.023220062
9.577647209 -19.4530201 -6.025644779
9.52510643 -19.49702072 -6.0302248
9.476586342 -19.5495491 -6.037498951
10.80090046 -18.79845047 -6.159687042
10.72793007 -18.80476952 -6.150887966
10.67208004 -18.84094048 -6.151988029
10.61800003 -18.88030052 -6.154187202
10.49682045 -18.93584061 -6.151163101
10.4386797 -18.96796036 -6.151163101
10.37812996 -18.99567986 -6.149787903
10.31980991 -19.02742958 -6.149787903
10.25819016 -19.05307007 -6.147862911
10.19651985 -19.07851982 -6.14593792
10.14109039 -19.11565971 -6.147862911
10.07791996 -19.13817024 -6.145112991
10.02093983 -19.17240906 -6.146214008
9.962511063 -19.20392036 -6.14648819
9.90530777 -19.23781013 -6.147587776
9.835741043 -19.2475605 -6.140988827
9.786645889 -19.29737091 -6.147313118
9.731718063 -19.33588982 -6.150063038
9.675787926 -19.37253952 -6.152263165
9.621004105 -19.41160965 -6.155286789
10.79741955 -18.7730999 -6.292067051
10.74120045 -18.80863953 -6.292909145
10.68249989 -18.8398304 -6.292346954
10.63358974 -18.88841057 -6.297679901
10.37658978 -18.9728508 -6.282804966
10.1353302 -19.08433914 -6.27803278
10.08032036 -19.12214088 -6.28027916
10.02116013 -19.15212059 -6.279997826
9.964120865 -19.18618965 -6.281120777
9.9012537 -19.2089901 -6.278594971
9.851454735 -19.25721931 -6.284489155
9.788417816 -19.27964973 -6.281962872
9.732245445 -19.3155899 -6.283926964
9.568472862 -19.43362045 -6.293469906
9.519762039 -19.4853096 -6.300766945
9.462449074 -19.51959991 -6.302452087
9.402519226 -19.54854012 -6.302452087
10.80173969 -18.79924011 -6.426784992
10.72881985 -18.80565071 -6.417637825
10.66777039 -18.83264923 -6.415637016
10.48701954 -18.91745949 -6.41134882
10.43078041 -18.95289993 -6.412491798
10.36981964 -18.97977066 -6.410777092
10.30515003 -18.99970055 -6.406774998
10.24454021 -19.02700996 -6.405345917
10.18385983 -19.05411911 -6.403916836
10.11995983 -19.07512093 -6.400485992
10.06406975 -19.11116982 -6.402202129
10.00627995 -19.14365005 -6.402772903
9.947502136 -19.17425919 -6.402772903
9.88950634 -19.20639038 -6.403345108
9.847979546 -19.27076912 -6.414779186
9.775807381 -19.27526093 -6.406204224
9.722227097 -19.31628036 -6.409920216
9.672768593 -19.36573982 -6.416493893
9.61841774 -19.40563011 -6.419925213
9.559259415 -19.43589973 -6.420209885
9.506731987 -19.4797802 -6.425069809
9.451101303 -19.51748085 -6.427927971
9.380801201 -19.52478981 -6.420782089
10.72949028 -18.79643059 -6.547105789
10.65950966 -18.80761909 -6.539535046
10.60270023 -18.84189987 -6.540116787
10.53411007 -18.85512924 -6.533419132
10.47436047 -18.88401031 -6.532255173
10.41084003 -18.90600014 -6.528759956
10.36334038 -18.95716095 -6.535458088
10.29508972 -18.97036934 -6.529050827
10.23729992 -19.00270081 -6.529343128
10.17263985 -19.02220917 -6.525266171
10.11960983 -19.06347084 -6.528759956
10.05572987 -19.08427048 -6.525266171
10.00288963 -19.12605095 -6.529050827
9.937555313 -19.1439209 -6.524682999
9.881842613 -19.18026924 -6.526721001
9.825130463 -19.21475029 -6.528178215
9.778253555 -19.26869011 -6.536331177
9.719522476 -19.29944992 -6.536623001
9.671813011 -19.3522892 -6.544485092
9.615796089 -19.3887291 -6.546813965
9.560913086 -19.42757988 -6.550017834
9.50756073 -19.46972084 -6.554386139
9.456542969 -19.5168705 -6.560501099
10.87219048 -18.78129005 -6.705609798
10.79833984 -18.78640938 -6.695517063
10.72266006 -18.78792953 -6.684235096
10.64661026 -18.78833961 -6.672657013
10.58189964 -18.80842972 -6.668203831
10.52320957 -18.83913994 -6.667610168
10.46026993 -18.86215019 -6.664344788
10.3945303 -18.8799305 -6.659296989
10.33563995 -18.91006088 -6.658703804
10.27711964 -18.94083977 -6.658407211
10.21805954 -18.97060013 -6.657814026
10.1602602 -19.00270081 -6.658110142
10.10369968 -19.03714943 -6.659296989
10.0447998 -19.06722069 -6.659000874
9.988027573 -19.1013298 -6.660188198
9.930698395 -19.13442039 -6.66107893
9.87544632 -19.17159081 -6.663454056
9.820928574 -19.21030045 -6.666422844
9.767130852 -19.25056076 -6.669984818
9.713177681 -19.29067039 -6.673548222
9.65821743 -19.32892036 -6.67651701
10.87635994 -18.77683067 -6.838101864
10.81680012 -18.80680084 -6.836894035
10.73824978 -18.80348015 -6.823596001
10.66170979 -18.80316925 -6.811508179
10.60630989 -18.83993912 -6.813018799
10.60426998 -18.97224045 -6.849284172
10.52011013 -18.95800972 -6.832359791
10.46051979 -18.98768997 -6.8314538
10.42920017 -19.0690403 -6.849284172
10.34836006 -19.05990028 -6.834475994
10.27536964 -19.06469917 -6.824804783
10.23167038 -19.12387085 -6.834777832
10.13002968 -19.07435036 -6.805767059
10.02033997 -19.00836945 -6.771012783
9.930316925 -19.12109947 -6.789446831
9.867676735 -19.14385033 -6.786726952
9.770741463 -19.24482918 -6.801232815
9.702216148 -19.25598907 -6.794585228
9.546474457 -19.38894081 -6.81029892
9.508705139 -19.46268082 -6.826014042
9.462256432 -19.51921082 -6.835683823
9.409352303 -19.56274986 -6.84082222
10.80706978 -18.80093002 -6.963005066
10.73377991 -18.80672073 -6.952861786
10.66053963 -18.8122406 -6.942718983
10.59858036 -18.83740044 -6.93995285
10.47356033 -18.88542938 -6.933804989
10.41098022 -18.90913963 -6.930731773
10.34836006 -18.93264008 -6.927659035
10.28750038 -18.95928001 -6.925814152
10.22747993 -18.98740005 -6.924584866
10.16917992 -19.01869011 -6.924584866
10.11077976 -19.04980087 -6.924584866
10.05362034 -19.08325005 -6.925507069
9.998998642 -19.1215992 -6.928273201
9.943357468 -19.15810013 -6.930425167
9.888021469 -19.19528008 -6.932884216
9.831249237 -19.22975922 -6.934421062
9.7765131 -19.26832008 -6.937493801
9.717352867 -19.29821968 -6.937493801
9.664907455 -19.34156036 -6.942410946
9.605945587 -19.37198067 -6.942718983
9.549828529 -19.40818977 -6.945178032
9.493998528 -19.44508934 -6.947944164
9.444255829 -19.4946804 -6.955320835
10.71278954 -18.75956917 -7.078012943
10.65705967 -18.79565048 -7.079265118
10.59469032 -18.81998062 -7.076135159
10.53318977 -18.84576035 -7.07363081
10.47117996 -18.87051964 -7.070815086
10.4068203 -18.89090919 -7.066431999
10.34926987 -18.92358017 -7.066744804
10.28573036 -18.94522095 -7.062989235
10.22665977 -18.97501945 -7.062364101
10.16705036 -19.0037899 -7.061423779
10.11048031 -19.03824997 -7.062675953
10.05290985 -19.07085991 -7.063302994
9.996994972 -19.10666084 -7.065179825
9.93920517 -19.13892937 -7.065805912
9.884791374 -19.17777061 -7.068935871
9.828070641 -19.21224022 -7.070500851
9.773381233 -19.25077057 -7.07363081
9.718120575 -19.28829956 -7.076447964
9.662297249 -19.32481956 -7.078951836
9.604229927 -19.35692024 -7.079891205
9.549412727 -19.39566994 -7.083333969
9.486945152 -19.41889954 -7.081142902
9.367613792 -19.47674942 -7.081142902
10.79992008 -18.78915977 -7.235071182
10.72296047 -18.78845024 -7.222021103
10.63395023 -18.76600075 -7.200695038
10.57215023 -18.79109955 -7.197831154
10.50981998 -18.81517029 -7.194646835
10.45067024 -18.84482956 -7.193693161
10.38778019 -18.86767006 -7.190190792
10.32439041 -18.88946915 -7.186371803
10.26366997 -18.91605949 -7.18446207
10.20514011 -18.94662094 -7.18414402
10.14606953 -18.97616959 -7.183506966
10.09136009 -19.01391029 -7.186052799
10.03960991 -19.0573597 -7.190827847
9.980216026 -19.08638954 -7.190190792
9.925106049 -19.1236496 -7.192738056
9.872032166 -19.1649704 -7.196876049
9.816208839 -19.20107079 -7.199103832
9.761973381 -19.24040031 -7.202604771
9.705456734 -19.27533913 -7.20451498
9.647545815 -19.30755997 -7.205470085
10.55673981 -18.76721001 -7.309694767
10.48803997 -18.77968025 -7.301940918
10.43587971 -18.82169914 -7.305818081
9.702213287 -19.2727108 -7.324881077
9.633312225 -19.28292084 -7.317449093
9.584196091 -19.33272934 -7.325202942
9.519825935 -19.35185051 -7.321325779
10.65188026 27.86389923 -7.752202988
14.93805981 31.07403946 -6.837572098
14.94717026 30.40251923 -6.933256149
14.82971954 30.85388947 -7.41181612
14.61163998 30.16278076 -7.255702019
14.68995953 30.08884048 -7.248682976
14.71168995 30.87284088 -7.629723072
14.68467999 30.57423973 -7.566700935
14.60241032 30.16543961 -7.476108074
14.76976013 30.27396965 -7.514401913
31.29208946 -29.59939957 -5.640112877
30.9356308 -27.87265968 -5.954556942
24.3846302 -28.98715019 -6.347613811
27.4676609 -27.96866989 -6.823883057
24.13275909 -26.95047951 -6.731058121
24.05192947 -27.02659988 -6.731609821
24.45454979 -26.82209015 -6.970119953
24.36488914 -26.88898087 -6.968033791
15.35694981 28.9356308 -7.090867996
40.56772995 -8.86376667 -4.136240005
40.63055038 -8.724201202 -4.410591125
40.70832062 -8.758411407 -4.669488907
40.73770905 -8.759952545 -4.930653095
39.8839798 -9.216020584 -5.598145962
39.81029892 -9.456678391 -5.595828056
39.81095123 -9.585959435 -5.600056171
39.8418808 -9.337774277 -5.851133823
39.80149078 -9.45721817 -5.849424839
39.76459122 -9.577428818 -5.848285198
39.93222046 -9.232430458 -6.116048813
39.89022827 -9.351737022 -6.113969803
39.87097168 -9.476361275 -6.115455151
39.99882889 -9.22522831 -6.389437199
39.97130966 -9.348125458 -6.389591217
39.94435883 -9.471166611 -6.389901161
