# .PCD v0.7 - Point Cloud Data file format
VERSION 0.7
FIELDS x y z
SIZE 4 4 4
TYPE F F F
COUNT 1 1 1
WIDTH 125
HEIGHT 1
VIEWPOINT 0 0 0 1 0 0 0
POINTS 125
DATA ascii
14.97224045 30.45350075 -6.94494915
14.57320976 30.32019997 -7.282926083
14.57798004 30.0933094 -7.238899231
14.65009022 30.00717926 -7.228902817
30.6778698 -29.75419044 -5.846271038
30.92827034 -27.86602974 -5.953133106
23.79504967 -29.18354034 -6.309709072
24.7428093 -26.95862961 -6.808868885
24.22443962 -27.22044945 -6.780172825
18.96961975 7.45601511 -6.163300037
18.80624962 7.456719875 -6.2484231
18.68717003 7.415272236 -6.332516193
19.82838058 7.379351139 -6.666148186
19.87507057 7.327386856 -6.674307823
18.52846909 7.346786022 -6.396545887
19.60667038 7.35969305 -6.722959042
19.72467995 7.266226768 -6.748161793
19.79247093 7.222317219 -6.763836861
19.93803024 7.206204891 -6.806252003
18.36684036 7.353271008 -6.47862196
18.37784004 7.29233408 -6.474553108
19.18468094 7.273851871 -6.720256805
19.26825905 7.23800087 -6.741853237
19.43367958 7.232176781 -6.792245865
19.55648041 7.209638119 -6.827614784
18.29542923 7.254189968 -6.566647053
18.33959961 7.141795158 -6.566647053
18.36584091 7.087203026 -6.568237782
18.43265915 7.048089981 -6.584471226
18.5561409 7.030128002 -6.621075153
18.18882942 7.274825096 -6.646388054
18.20051003 7.214803219 -6.642510891
18.36437035 7.149686813 -6.686450958
18.41976929 7.106256962 -6.698729038
18.69754982 7.081936836 -6.784348011
18.98765945 7.125290871 -6.882245064
17.93730927 7.307752132 -6.691899776
17.97191048 7.257637978 -6.696496964
18.03004074 7.216859818 -6.709959984
18.10125923 7.181018829 -6.728350163
18.16803932 7.143081188 -6.74509716
18.2981205 7.129493237 -6.785486221
18.31461906 7.071280003 -6.78351593
18.46150017 7.062992096 -6.830144882
18.68532944 7.083001137 -6.905342102
18.82810974 7.071145058 -6.950328827
17.56085968 7.404926777 -6.707117081
17.68058968 7.26447916 -6.727146149
18.01629066 7.081369877 -6.813268185
18.17671013 7.080112934 -6.866009235
18.24407959 7.0419631 -6.883367062
18.67304039 7.076170921 -7.029573917
17.33626938 7.497162819 -6.76192379
17.33152008 7.432075977 -6.751079082
17.37675095 7.388440132 -6.759890079
17.4262104 7.346423149 -6.770396233
17.42349052 7.282403946 -6.760568142
18.03181076 7.021944046 -6.928662777
18.29640007 7.060408115 -7.022539139
16.87792015 8.56528759 -6.891795158
16.90914917 8.516000748 -6.893857956
16.90831947 8.450651169 -6.882851124
16.92070961 8.392061234 -6.877346992
16.92616081 8.330158234 -6.869091988
16.92885971 8.267065048 -6.859804153
16.92625046 8.201577187 -6.848452091
16.94795036 8.147981644 -6.847075939
16.93473053 8.077755928 -6.831596851
16.94416046 8.018532753 -6.825405121
16.94148064 7.953742027 -6.814396858
16.9845295 7.910449982 -6.821965218
18.22481918 7.034695148 -7.114697933
18.38664055 7.032421112 -7.169735909
16.80028915 8.398534775 -6.950593948
16.77812958 8.32321167 -6.930706978
16.77667999 8.258451462 -6.919541836
16.78340912 8.197892189 -6.911866188
16.79668045 8.140640259 -6.906981945
16.80298996 8.080133438 -6.89930582
16.80994034 8.020069122 -6.891979218
16.82176018 7.962443829 -6.886744976
16.83338928 7.904821873 -6.881512165
16.84992027 7.849578857 -6.878372192
16.86626053 7.794309139 -6.87523222
16.88497925 7.740182877 -6.873137951
16.89159012 7.680584908 -6.866159916
16.92362022 7.632579803 -6.869648933
16.94952011 7.581770897 -6.870696068
16.96241951 7.525174141 -6.866508961
16.98628998 7.473475933 -6.866858006
18.17868996 7.082951069 -7.221340179
18.29038048 7.061919212 -7.257277012
16.78318024 8.585644722 -7.096376896
16.76273918 8.510409355 -7.076546192
16.71405029 8.229302406 -7.012448788
16.70981026 8.163619995 -7.000053883
16.71962929 8.104973793 -6.99368
16.72756004 8.045535088 -6.986598015
16.74448967 7.927539825 -6.973141193
16.75856972 7.871360779 -6.968891144
16.78009987 7.818725109 -6.967829227
16.79128075 7.761322021 -6.962516785
16.79970932 7.702755928 -6.956141949
16.81134033 7.645760059 -6.951185226
16.81851959 7.58684206 -6.9444561
16.84172058 7.535206795 -6.9444561
29.9147892 11.96131992 -7.575980186
29.82415009 11.50261974 -7.516396999
40.62937927 -8.741427422 -3.634922028
40.5981102 -8.852913857 -3.897475004
40.62995148 -8.877356529 -4.142641068
40.77249146 -8.754681587 -4.426130772
40.82197952 -8.782865524 -4.682631969
40.8945694 -8.788873672 -5.216322899
40.87182999 -8.776014328 -5.472686768
39.78125 -9.32093811 -5.587643147
39.76596069 -9.446146011 -5.589552879
39.80718994 -9.329644203 -5.846005917
39.77838135 -9.451726913 -5.846005917
39.96112823 -9.2391119 -6.120502949
39.94126129 -9.363698959 -6.12184
39.91907883 -9.487792969 -6.122879982
39.99497986 -9.224340439 -6.388817787
39.9655304 -9.346774101 -6.388662815
39.938591 -9.469799042 -6.388971806
