# .PCD v0.7 - Point Cloud Data file format
VERSION 0.7
FIELDS x y z
SIZE 4 4 4
TYPE F F F
COUNT 1 1 1
WIDTH 167
HEIGHT 1
VIEWPOINT 0 0 0 1 0 0 0
POINTS 167
DATA ascii
14.97743034 30.46405029 -6.947368145
14.57032013 30.07748032 -7.235071182
14.60453987 30.16983032 -7.477201939
24.45292091 -36.6008606 -6.022644997
24.35873985 -36.94871902 -6.055383205
24.44182968 -37.82785034 -6.163009167
25.37607002 -35.34468079 -6.223800182
25.12952995 -35.45854187 -6.216535091
24.4943409 -35.94697952 -6.222089767
24.41168022 -36.06295013 -6.229213238
24.35449982 -36.21733856 -6.243031979
24.41371918 -36.54703903 -6.287192822
24.37262917 -36.72898102 -6.305712223
24.30176926 -36.86721039 -6.316680908
24.30241966 -37.11548996 -6.346597195
24.35195923 -37.44129181 -6.389760971
24.99670982 -35.27573013 -6.453736782
24.87413979 -35.33203888 -6.450025082
24.76789093 -35.41143036 -6.450619221
24.63713074 -35.45558167 -6.44482708
24.45659065 -35.66072083 -6.454776764
24.39941025 -35.81240082 -6.468736172
24.26115036 -35.84532928 -6.46116209
24.25591087 -36.07550812 -6.489377022
24.29927063 -36.62331009 -6.561398983
24.33156967 -36.91732025 -6.600901127
24.27614975 -37.08031845 -6.616789818
24.30084038 -37.3676796 -6.654953957
24.91313934 -35.11803818 -6.703962803
24.80755043 -35.19754028 -6.704582214
24.69662094 -35.26942825 -6.703807831
24.58435059 -35.33935928 -6.702724934
24.48535919 -35.42842865 -6.705355167
23.88430977 -30.02066994 -6.677133083
23.90340996 -30.61889076 -6.76145792
31.23879051 -29.54898071 -5.630441189
30.96283913 -27.89716911 -5.9598279
27.46145058 -27.9623394 -6.822330952
23.99242973 -29.04286003 -6.55607605
17.61581039 -12.64043999 -7.103991985
30.62895966 5.706514835 -6.560159206
30.6905899 5.620625973 -6.569692135
30.72982979 5.530426979 -6.574458122
30.74954987 5.436635017 -6.575078964
30.77475929 5.34377718 -6.576943874
30.83151054 5.256240845 -6.58564806
30.84460068 5.161141872 -6.585025787
30.66646957 5.511332989 -6.742483139
30.60811043 5.703814983 -6.942614079
30.63698006 5.61199379 -6.945240021
30.65501022 5.518147945 -6.945457935
26.62817955 12.99009991 -7.324957848
26.62372971 12.89957047 -7.506204128
41.39776993 6.651162148 -3.667578936
41.78075027 6.187737942 -3.694778919
40.67126083 -8.750437737 -3.638706923
41.64570999 8.286282539 -3.983649015
41.65530014 8.155417442 -3.982140064
41.59606171 8.011388779 -3.974031925
41.28231049 6.904887199 -3.926230907
41.29838943 6.777396202 -3.925760031
41.29835129 6.647338867 -3.923779011
41.35787964 6.526813984 -3.927551031
41.4564209 6.412074089 -3.935092926
41.50936127 6.289928913 -3.938298941
41.7539711 6.196016788 -3.959889889
41.8171196 6.074328899 -3.964132071
41.92033005 5.958055019 -3.972239971
40.60491943 -8.854398727 -3.898134947
41.65007019 8.269366264 -4.230554104
41.63423157 8.133532524 -4.226353168
41.06697845 6.981078148 -4.149442196
41.09017181 6.855381012 -4.149641991
41.13850021 6.73378706 -4.152442932
41.16682053 6.608806133 -4.153243065
41.13776016 6.474740982 -4.148241997
41.1800499 6.351990223 -4.150541782
41.31937027 6.243762016 -4.162744045
41.89651871 6.068286896 -4.217552185
41.93463898 5.942514896 -4.219552994
41.92311096 5.809734821 -4.216551781
40.68146896 -8.888612747 -4.147942066
41.67333984 8.297142029 -4.510643005
41.65956879 8.161605835 -4.50638485
41.54478836 8.006853104 -4.491165161
40.82255173 7.478675842 -4.404736996
40.8286705 7.350405216 -4.402927876
40.8382988 7.222857952 -4.401544094
40.83478928 7.093111038 -4.398777008
40.84656143 6.966125965 -4.397712231
40.84518051 6.837003231 -4.395264149
40.86695099 6.711821079 -4.39537096
40.87950134 6.58514595 -4.394518852
40.87887955 6.456441879 -4.392283916
40.96334839 6.341033936 -4.399309158
41.08386993 6.230683804 -4.410272121
41.9085083 6.092905045 -4.495421886
41.95751953 5.968643188 -4.498722076
41.98646927 5.841396809 -4.499892235
41.70708847 8.286050797 -4.769244194
41.71086121 8.153862 -4.766771793
40.6995697 6.538992882 -4.622196198
40.72335815 6.414715767 -4.622644901
40.74874115 6.290657997 -4.623319149
40.75310898 6.163383961 -4.621634007
41.94860077 6.081134796 -4.753965855
41.98181915 5.954503059 -4.755650997
41.98807907 5.824038029 -4.754302979
40.44665909 7.911445141 -4.876305103
40.44927979 7.783192158 -4.873700142
40.44078064 7.652965069 -4.869792938
40.56742096 6.65016222 -4.863873005
40.66419983 6.282269001 -4.868371964
41.94842911 5.954584122 -5.014126778
41.97142029 5.826542854 -5.014719009
41.79927826 8.314156532 -5.315536022
41.94004059 5.958209038 -5.2832551
41.97875977 5.832377911 -5.285871983
41.93836975 5.965919018 -5.546140194
41.97906113 5.84036684 -5.549146175
40.39125061 5.989168167 -5.584095955
39.94104004 -9.100217819 -5.602239132
39.84730148 -9.20754528 -5.592963219
39.82851028 -9.332012177 -5.594326973
39.81510925 -9.457823753 -5.59650898
39.7984314 -9.58294487 -5.598282814
40.14548111 7.724730015 -5.845436096
40.15439987 7.598768234 -5.843298912
40.16098022 7.472463131 -5.84087801
40.17884827 7.348324776 -5.840165138
40.18756104 7.22257185 -5.838171005
40.1919899 7.09614706 -5.835607052
40.20869064 6.971960068 -5.83489418
40.22013092 6.846908092 -5.833469868
40.2448616 6.724133968 -5.834040165
40.24869156 6.597910881 -5.831617832
40.26776886 6.47424221 -5.831474781
40.28157043 6.349747181 -5.830620766
40.2783699 6.222659111 -5.827343941
40.29922104 6.099352837 -5.827629089
40.32852173 5.977283955 -5.829195976
39.81008148 -9.330321312 -5.846433163
39.79185867 -9.454930305 -5.84800005
39.73764038 -9.570940018 -5.844295979
40.15203094 7.851204872 -6.105060101
40.13903046 7.720883846 -6.09941721
40.15259171 7.468300819 -6.094367981
40.14516068 7.3395648 -6.089764118
40.15288925 7.213744164 -6.087536812
40.1602211 7.087944031 -6.085309029
40.16716003 6.962166786 -6.083082199
40.19807816 6.840561867 -6.08456707
40.20326996 6.714597225 -6.08219099
40.21879959 6.590424061 -6.081448078
40.23590088 6.466533184 -6.081003189
40.26239014 6.344138145 -6.082042217
40.29045868 6.221942902 -6.083378792
39.97943115 -9.243344307 -6.123324871
39.94992065 -9.365730286 -6.123177052
39.91426849 -9.486650467 -6.12213707
40.23171997 6.48801899 -6.342868805
40.26607895 6.366874218 -6.345189095
40.28152084 6.242703915 -6.344571114
40.31415939 6.12116909 -6.346735954
40.02867889 -9.232111931 -6.394231796
40.02709961 -9.361175537 -6.398563862
39.96070099 -9.475042343 -6.392530918
