# .PCD v0.7 - Point Cloud Data file format
VERSION 0.7
FIELDS x y z
SIZE 4 4 4
TYPE F F F
COUNT 1 1 1
WIDTH 50
HEIGHT 1
VIEWPOINT 0 0 0 1 0 0 0
POINTS 50
DATA ascii
10.57691002 27.66778946 -7.697357178
14.98822975 30.48601913 -6.952406883
12.36931992 34.25122833 -7.674427986
12.49244022 34.26274872 -7.685617924
14.58139038 30.10034943 -7.240601063
14.66294956 30.03351974 -7.235283852
14.62026978 30.2023201 -7.485298157
14.65425014 30.03717995 -7.455318928
24.69088936 -42.96876907 -6.187273026
25.42432976 -40.13367844 -6.224861145
25.34015083 -40.27359009 -6.234532833
25.19492912 -40.31666946 -6.229174137
24.84765053 -40.58744049 -6.235447884
24.74515915 -40.69990158 -6.241067886
24.98123932 -39.99557114 -6.454782963
24.82708931 -40.02151108 -6.446599007
24.81278992 -40.27376938 -6.475108147
24.66481018 -40.30998993 -6.468697071
24.57550049 -40.44218826 -6.477837086
31.37347031 -29.67638969 -5.654881954
30.96209908 -27.89650917 -5.959685802
24.25535965 -29.19145966 -6.121967793
24.1814003 -29.28475952 -6.125973225
27.04179955 -25.91076088 -6.275461197
24.36432076 -28.96301079 -6.342294216
24.26143074 -29.02096939 -6.338635921
24.7166996 -26.76489067 -6.778884888
24.5587101 -26.75803947 -6.75791502
24.04211998 -27.01557922 -6.728849888
24.18242073 -27.01896095 -6.963103771
24.08245087 -27.07394981 -6.958175182
24.25068092 -20.91201973 -7.141524792
23.76078987 46.82587051 -7.846517086
23.90299034 46.75011063 -7.846072197
40.73553085 -8.764266968 -3.644516945
40.67494965 -8.869668961 -3.904922962
40.65132904 -8.882029533 -4.144842148
40.70576859 -8.609796524 -4.415913105
40.67625046 -8.734012604 -4.415594101
41.01995087 -9.346048355 -5.754604816
39.79391098 -9.452786446 -5.593509197
39.91662979 -9.226196289 -5.857972145
39.83320999 -9.335741997 -5.849852085
39.78126907 -9.452413559 -5.846433163
39.91199112 -9.227752686 -6.112929821
39.87194061 -9.347449303 -6.111147881
39.85173035 -9.471788406 -6.112483978
40.00268936 -9.22611618 -6.39005518
39.98574066 -9.351499557 -6.391911983
39.94340134 -9.470938683 -6.389746189
