# .PCD v0.7 - Point Cloud Data file format
VERSION 0.7
FIELDS x y z
SIZE 4 4 4
TYPE F F F
COUNT 1 1 1
WIDTH 164
HEIGHT 1
VIEWPOINT 0 0 0 1 0 0 0
POINTS 164
DATA ascii
-22.66210938 -6.268389225 -5.665771961
-22.70466995 -6.205237865 -5.671668053
-22.61841011 -6.254436016 -5.793539047
-22.69178963 -6.19985199 -5.80753088
-22.76036072 -6.143610954 -5.820316792
-22.80023003 -6.239376068 -5.989580154
-22.78047943 -6.303006172 -6.134130001
-22.89397049 -6.258853912 -6.159657001
-22.89718056 -6.184298992 -6.155361176
-22.90871048 -6.2695961 -6.310369015
-22.93717003 -6.201805115 -6.312952042
-19.5736599 -6.469296932 -5.599143982
-19.59708023 -6.410416126 -5.600200176
-16.71346092 -5.752245903 -5.667803764
-16.62218094 -5.72571516 -5.752467155
-16.86980057 -5.753157139 -5.832593918
-22.34482956 -6.19272089 -7.600093842
-16.56374931 -5.871788979 -5.859070778
-16.58974075 -5.823770046 -5.861936092
-16.6021595 -5.770977974 -5.860025883
-16.66728973 -5.736365795 -5.876894951
-16.86697006 -5.747270107 -5.941510201
-16.48669052 -5.89983511 -5.936554909
-16.53058052 -5.8583951 -5.945925236
-16.5627594 -5.812666893 -5.951095104
-16.58588028 -5.763689995 -5.95303297
-16.61333084 -5.716165066 -5.956586838
-16.75350952 -5.706977844 -6.000851154
-16.49303055 -5.964115143 -6.055514812
-16.51748085 -5.915717125 -6.057814121
-16.55602074 -5.872278214 -6.065365791
-16.56682968 -5.818952084 -6.062738895
-16.59173965 -5.770580769 -6.065365791
-16.65312958 -5.734724045 -6.081457138
-16.52252007 -6.030560017 -6.186711788
-16.5320797 -5.976635933 -6.183373928
-16.54146004 -5.922710896 -6.180036068
-16.58176041 -5.879808903 -6.188381195
-16.59972954 -5.828909874 -6.188381195
-16.62198067 -5.779502869 -6.190050125
-16.65210915 -5.732775211 -6.194724083
-16.35938072 -6.140590191 -6.252552986
-16.45673943 -6.004919052 -6.268482208
-16.5349102 -5.918729782 -6.28441
-16.56362915 -5.871746063 -6.288476944
-16.59132957 -5.824329853 -6.292204857
-18.51589012 -5.993702888 -6.968654156
-18.55121994 -5.942321777 -6.975092888
-18.6402092 -5.907834053 -7.001865864
-18.59810066 -5.831758976 -6.979159832
-18.72193909 -5.807562828 -7.01914978
-16.01118088 -6.011458874 -6.223426819
-18.73221016 -5.81262207 -7.143249989
-18.88549042 -5.796730995 -7.195190907
14.99483967 30.94864082 -6.819968224
12.36334038 34.23466873 -7.670698166
14.51309967 30.19514084 -7.252724171
14.55541039 30.04670906 -7.227626801
14.65480995 30.01683044 -7.231243134
14.67212963 30.30946922 -7.511994839
31.32234001 -29.6280098 -5.645602226
31.23991013 -29.7321701 -5.647171021
31.15498924 -29.83404922 -5.648346901
30.9356308 -27.87265968 -5.954556942
30.92317963 -27.18481064 -6.144264221
30.90111923 -27.33394051 -6.156589031
30.86734009 -27.47332001 -6.166687012
27.09306908 -25.95988083 -6.287430763
27.36758041 -27.86676979 -6.798879147
24.03623962 -27.00897026 -6.727194786
29.98481941 -0.8338844776 -5.94366312
29.95565987 -0.9250563979 -5.938381195
29.93209076 -1.016257048 -5.934274197
29.91412926 -1.107539058 -5.931340218
29.88707924 -1.198367 -5.926644802
29.91264915 -1.291321039 -5.932513237
29.91540909 -1.38340199 -5.93388319
29.87184906 -1.473243952 -5.926057816
29.94651031 -1.569036007 -5.941902161
29.98365974 -1.663236976 -5.950313091
29.94359016 -0.7293375134 -6.125279903
29.65679932 -1.177747011 -6.069238186
29.45014 -1.352630019 -6.205382824
29.57025909 -1.631008029 -6.233774185
29.70923042 -1.913094044 -6.266723156
29.7217598 -2.005482912 -6.270659924
29.69384003 -0.5502855182 -6.424936771
29.60898018 -0.6395897865 -6.406858921
29.52146912 -0.8189529777 -6.388780117
29.50416946 -0.9090685248 -6.385590076
29.46804047 -0.9984570742 -6.378357887
29.42186928 -1.087272048 -6.368999958
29.43597031 -1.178235054 -6.372828007
29.43320084 -1.26857996 -6.373041153
29.44282913 -1.359503984 -6.376019001
29.47072983 -1.451413035 -6.383038044
29.48271942 -1.542688966 -6.386652946
29.51004982 -1.634917021 -6.393671989
29.53123093 -1.726984978 -6.399415016
29.58820915 -1.821418047 -6.41302681
29.68194008 -1.918612957 -6.434720993
29.61450005 -2.005507946 -6.421321869
29.54430962 -0.3579455018 -6.58636713
29.59814072 -0.5402498841 -6.599059105
29.53293991 -0.6297035813 -6.584836006
29.45185089 -0.7183822989 -6.567111015
29.43683052 -0.8083881736 -6.564266205
29.43226051 -0.8986359239 -6.563827991
29.40596008 -0.9881430268 -6.558577061
29.3930397 -1.077996969 -6.556387901
29.38764 -1.168091059 -6.555951118
29.40341949 -1.259080052 -6.560327053
29.40332031 -1.349460959 -6.561203003
29.41560936 -1.440474033 -6.564921856
29.44125938 -1.532284021 -6.571705818
29.46661949 -1.624264956 -6.57848978
29.48682976 -1.716132045 -6.584178925
29.50284958 -1.807901025 -6.588993073
29.50592995 -1.898969054 -6.590961933
29.52235031 -1.990993023 -6.595994949
29.54239082 -2.083409071 -6.601903915
29.47064018 -0.6324808002 -6.754749775
29.43251991 -0.722006917 -6.74643898
29.41555977 -0.8118972778 -6.743071079
29.40319061 -0.9018399715 -6.740824223
29.38080025 -0.9913855195 -6.73633194
29.36107063 -1.080909967 -6.732513905
29.37026978 -1.171489 -6.735434055
29.39963913 -1.263013005 -6.743071079
29.41802025 -1.354235053 -6.748237133
29.41955948 -1.444769025 -6.749584198
29.41888046 -1.535223961 -6.750483036
29.42571068 -1.626117945 -6.75317812
29.39431953 -1.714854002 -6.747113228
29.47839928 -1.810526013 -6.767776966
29.47464943 -1.901080966 -6.7682271
29.48715019 -1.992748022 -6.772493839
29.6101799 -2.092344046 -6.802368164
29.48090935 -0.6347628236 -6.930690765
29.44087982 -0.7242720127 -6.921719074
29.43268013 -0.8144304156 -6.920339108
29.44366074 -0.9051434994 -6.923559189
29.3998909 -0.9940894246 -6.913897038
29.44824982 -1.086184025 -6.926089764
29.47686958 -1.177808046 -6.933681011
40.7949295 -8.777048111 -3.649885893
40.68663025 -8.872214317 -3.90605402
40.62509155 -8.876296043 -4.142140865
40.65290833 -8.729002953 -4.413039207
40.67016983 -9.782676697 -5.476215839
39.92013931 -9.353482246 -5.607285023
39.89318085 -9.476368904 -5.607557774
40.56026077 -9.766391754 -5.706181049
39.95037842 -9.233997345 -5.862957954
39.90259171 -9.352003098 -5.860108852
39.84963989 -9.468658447 -5.856547832
40.58348846 -9.774656296 -5.969514847
40.51388931 -9.88949585 -5.963675022
40.02471924 -9.25381279 -6.130304813
39.91815186 -9.358282089 -6.118276119
39.90850067 -9.48527813 -6.121245861
40.05562973 -9.238329887 -6.398563862
40.04056931 -9.364325523 -6.400730133
39.99435043 -9.483020782 -6.397944927
