# .PCD v0.7 - Point Cloud Data file format
VERSION 0.7
FIELDS x y z
SIZE 4 4 4
TYPE F F F
COUNT 1 1 1
WIDTH 189
HEIGHT 1
VIEWPOINT 0 0 0 1 0 0 0
POINTS 189
DATA ascii
14.98692989 30.48339081 -6.951803207
12.37497044 34.26686859 -7.677950859
12.48071003 34.23057938 -7.678365231
14.54603004 30.02736092 -7.222948074
14.76070976 30.47570038 -7.964765072
23.94038963 -30.66625023 -6.771976948
31.32234001 -29.6280098 -5.645602226
30.97459984 -27.90777016 -5.962108135
30.97962952 -27.23443031 -6.155550003
30.93889046 -27.36734962 -6.164163113
30.8850708 -27.4890995 -6.170250893
32.00244904 -26.08090973 -6.426258087
27.37310028 -27.87239075 -6.80025816
24.03951073 -27.01264954 -6.728115082
33.75975037 -0.0004265818861 -4.202744961
33.75761032 -0.103993997 -4.202496052
33.76903915 -0.2076331973 -4.20399189
33.79304886 -0.3114618957 -4.207108021
33.80284119 -0.4152697027 -4.208478928
33.8252182 -0.5193381906 -4.211471081
33.84032822 -0.6234201789 -4.213589191
33.85015869 -0.7274932861 -4.21508503
33.84083176 -0.8311703801 -4.214211941
33.89168167 -0.9364668131 -4.220942974
33.9094696 -1.041079044 -4.223559856
33.91305923 -1.145341039 -4.224432945
33.94112015 -1.250548005 -4.228422165
33.95793915 -1.355502009 -4.231039047
33.99227905 -1.461338043 -4.235899925
34.0044899 -1.566393018 -4.23801899
34.01240921 -1.671342969 -4.239638805
34.01504898 -1.776097059 -4.240635872
34.01834869 -1.880938053 -4.24175787
34.01340866 -1.985353947 -4.241882801
34.00914001 -2.089818001 -4.242132187
34.00157928 -2.194082975 -4.242006779
33.74300003 -0.09720905125 -4.410101891
33.74848938 -0.2007662952 -4.410886765
33.7923317 -0.304708004 -4.416768074
33.78528976 -0.40830791 -4.415984154
33.84830856 -0.5129364729 -4.424479008
33.84460068 -0.6167430282 -4.424218178
33.83956909 -0.7205104828 -4.423826218
33.90559006 -0.8259937763 -4.432844162
33.90586853 -0.9300925136 -4.433236122
33.90285873 -1.03410995 -4.433236122
33.91041946 -1.138484001 -4.434673786
33.92559814 -1.243204951 -4.437157154
33.96223831 -1.348896027 -4.44251585
33.98270035 -1.454144001 -4.445783138
33.99195099 -1.55903101 -4.447612762
34.00086975 -1.663988948 -4.449442863
34.00352097 -1.768705964 -4.450489044
34.00091171 -1.873183012 -4.450881004
34.00093842 -1.977833033 -4.451664925
33.99174118 -2.081954956 -4.451272011
33.98519897 -2.186230898 -4.451272011
33.70512009 -0.001817062031 -4.602645874
33.70495987 -0.1052229032 -4.602645874
33.70745087 -0.2086461931 -4.603055954
33.74726868 -0.3124347031 -4.608647823
33.75804138 -0.4161151052 -4.610284805
33.77838898 -0.5200170279 -4.613286018
33.81130981 -0.6242858171 -4.618061066
33.83102036 -0.7284839153 -4.621060848
33.86328888 -0.8331257105 -4.625835896
33.86750031 -0.9372047782 -4.626791
33.90605927 -1.042382956 -4.632520199
33.90665817 -1.146535039 -4.633065224
33.94654083 -1.252161026 -4.639067173
33.9692688 -1.357370019 -4.642749786
33.96493912 -1.461580038 -4.642749786
33.97217941 -1.566323042 -4.644386768
33.99393082 -1.671854973 -4.648069859
33.99357986 -1.776397943 -4.648752213
33.98698044 -1.880625963 -4.648615837
33.9978714 -1.985870004 -4.650935173
33.98667145 -2.089859962 -4.650252819
33.98503876 -2.194438934 -4.650935173
33.69298935 -0.004061509855 -4.810777187
33.70666885 -0.1074741036 -4.812770844
33.69826889 -0.2108348012 -4.811632156
33.76475906 -0.314845413 -4.821319103
33.7765007 -0.4185920954 -4.823171139
33.78892136 -0.5224289894 -4.825164795
33.80992126 -0.6265109777 -4.828441143
33.79991913 -0.7300645709 -4.827301979
33.81731033 -0.834245801 -4.830151081
33.9402504 -0.9414761066 -4.848243237
33.91741943 -1.04498899 -4.845394135
33.94570923 -1.150114059 -4.849952221
33.95981979 -1.254909992 -4.852517128
33.97064972 -1.359684944 -4.854652882
33.96434021 -1.46381402 -4.85436821
33.96957016 -1.568464994 -4.855792999
33.98994827 -1.778470993 -4.860208988
33.97050095 -1.881976008 -4.858214855
33.97148132 -1.986592054 -4.859211922
33.99486923 -2.09262991 -4.863485813
33.96852875 -2.195637941 -4.860636234
33.66765976 -0.006301953923 -5.017149925
33.65858078 -0.1095642 -5.015812874
33.65314102 -0.2127956003 -5.015070915
33.71067047 -0.3165869117 -5.023831844
34.19932938 -0.9509276748 -5.098972797
34.13370132 -1.368476033 -5.091250896
33.92977142 -1.464583039 -5.061254025
33.94981003 -1.569812059 -5.064967155
33.9724884 -1.675323963 -5.069125175
34.19728851 -1.791589022 -5.103724957
33.923069 -1.881608963 -5.063333035
33.93489838 -1.986714005 -5.066006184
33.90496063 -2.089356899 -5.062441826
33.87963867 -2.192152977 -5.059620857
33.6242485 -0.09099703282 -5.226788044
33.65739822 -0.1943494976 -5.232048035
33.65565872 -0.2975991964 -5.231894016
33.67039108 -0.4010407925 -5.234368801
33.66703033 -0.5043085217 -5.234058857
33.68212128 -0.6078987718 -5.236690044
33.71762848 -0.712025106 -5.242568016
33.73405075 -0.8159204721 -5.245508194
33.80052185 -0.921298027 -5.25633812
33.82518005 -1.025832057 -5.260670185
33.83174896 -1.129930973 -5.262217045
33.86367035 -1.235018015 -5.267786026
33.8498497 -1.338513017 -5.266239166
33.81005096 -1.44084096 -5.260670185
33.86566925 -1.547315001 -5.270106792
33.84300995 -1.650339961 -5.267322063
33.84962082 -1.754775047 -5.269177914
33.83322906 -1.858018994 -5.267477036
33.81750107 -1.961236954 -5.265930176
33.50648117 -0.1046010032 -5.400150776
33.52968979 -0.2075438052 -5.403995991
33.56541824 -0.3107491136 -5.409924984
33.58108902 -0.413931787 -5.412648201
33.69208908 -1.03580296 -5.432837009
33.69763184 -1.139464021 -5.434278965
33.72257996 -1.243896961 -5.438924789
33.73537064 -1.34802103 -5.44164896
33.73503113 -1.451683044 -5.442289829
33.81990814 -0.004075354896 -5.663153172
33.62054825 -1.035845995 -5.632229805
33.61721039 -1.138988018 -5.632229805
33.63327026 -1.242846966 -5.63555479
33.93375015 -1.358209014 -5.686926842
33.61909103 -1.448938966 -5.63455677
34.06496811 -0.09898749739 -5.92475605
34.01427078 -0.2031985074 -5.915960789
34.18289948 -0.3090778887 -5.945621014
34.3147583 -0.4155538976 -5.968902111
34.39582062 -1.049988031 -5.98545599
34.40719986 -1.156003952 -5.988042831
34.40644073 -1.261666059 -5.9885602
34.47623062 -1.370149016 -6.001492977
34.2947197 -1.468335986 -5.970452785
34.27529907 -1.572867036 -5.967866898
34.35984039 -1.682394981 -5.983559132
34.42755127 -1.897526026 -5.997354984
34.2671814 -1.994160056 -5.970281124
34.24829865 -1.050639033 -6.163156986
34.40422821 -1.16108799 -6.192011833
34.24906921 -1.261052012 -6.164581776
34.41316986 -1.372833967 -6.195040226
34.48471069 -1.587677002 -6.209644794
34.33034897 -1.682400942 -6.393322945
34.35348892 -1.789199948 -6.398657799
34.29574966 -1.997269034 -6.390011787
40.74137115 -8.765523911 -3.645045042
40.75666046 -8.887486458 -3.912842989
40.73881912 -8.90114212 -4.153842926
40.80012894 -8.629757881 -4.42623806
40.77054977 -8.754263878 -4.425918102
40.81732178 -8.777069092 -4.940361977
40.77912903 -8.764068604 -5.201489925
40.09479141 -8.876815796 -5.61615181
39.94285965 -9.229626656 -5.60646677
39.89313889 -9.347153664 -5.603466034
39.85366821 -9.466981888 -5.601965904
39.93206024 -9.229763031 -5.86025095
39.89199066 -9.349518776 -5.858541965
39.85541916 -9.470031738 -5.857401848
39.96401978 -9.239780426 -6.120948792
39.92584991 -9.360087395 -6.119463921
39.89503098 -9.482077599 -6.119166851
40.0402298 -9.234775543 -6.396089077
40.02037048 -9.359600067 -6.397480965
39.9885788 -9.481653214 -6.397017002
