# .PCD v0.7 - Point Cloud Data file format
VERSION 0.7
FIELDS x y z
SIZE 4 4 4
TYPE F F F
COUNT 1 1 1
WIDTH 71
HEIGHT 1
VIEWPOINT 0 0 0 1 0 0 0
POINTS 71
DATA ascii
14.95079994 31.10055923 -6.84344101
14.98414993 30.92657089 -6.815077782
14.97224045 30.45350075 -6.94494915
12.38992023 34.30828094 -7.687275887
12.49578953 34.27193832 -7.687691212
14.55498028 30.04582977 -7.227414131
14.59132957 30.37985039 -7.518341064
31.34473991 -30.01576042 -5.682981968
31.29249001 -30.15031052 -5.690300941
31.21620941 -30.26203918 -5.693306923
24.5062294 -36.90653992 -5.80204916
24.61484909 -36.59965897 -6.034922123
24.32439041 -36.89661026 -6.046790123
24.36978912 -37.71635818 -6.144730091
25.42687035 -35.41543961 -6.236336231
25.28475952 -35.44654083 -6.228074074
24.4438591 -36.11048889 -6.237474918
24.38599014 -36.26416016 -6.251151085
24.37797928 -36.49354172 -6.277933121
24.37755013 -36.7364006 -6.306993961
24.32411003 -36.90110016 -6.322522163
24.31163979 -37.12957001 -6.349019051
24.30446053 -37.36827087 -6.377224922
24.33633995 -37.66962814 -6.416116238
24.90545082 -35.37651062 -6.458191872
24.75826073 -35.39765167 -6.448093891
24.63316917 -35.44989014 -6.443788052
24.42694092 -35.61750031 -6.44690609
24.34094048 -35.7265892 -6.45314312
24.28720093 -35.88381958 -6.468142033
24.26528931 -36.08945847 -6.491901875
24.32934952 -36.66862869 -6.569567204
24.27614975 -37.08031845 -6.616789818
24.29166985 -37.3535881 -6.652430058
24.90513039 -35.10675812 -6.701797009
24.69208908 -35.26295853 -6.702569962
24.57871056 -35.33124924 -6.701178074
24.47300911 -35.41054916 -6.701951981
24.36593056 -35.48791122 -6.702414989
24.27474976 -35.58861923 -6.70736599
23.84339905 -30.5420208 -6.744386196
31.40723991 -29.8914299 -5.677624226
30.93489075 -27.8719902 -5.954414845
24.23328018 -29.16488075 -6.116360188
24.16316986 -29.26268959 -6.121326923
40.77254105 -8.772229195 -3.647861958
40.73979187 -8.90135479 -4.153943062
40.77872849 -8.625229836 -4.423895836
40.73165894 -8.745912552 -4.4216609
40.89068985 -8.788040161 -5.215824127
42.80432892 7.97748518 -5.701803207
42.81592178 7.843802929 -5.700104237
42.98382187 6.653740883 -5.695790768
42.97756958 6.517824173 -5.692262173
42.90174103 6.900463104 -5.944892883
42.92858887 6.769734859 -5.94571209
42.95698929 6.639211178 -5.946803093
42.94580841 6.502644062 -5.942438126
39.84973145 -9.336983681 -5.597328186
39.81896973 -9.458739281 -5.597054958
39.92435074 -9.22797966 -5.859111786
39.87078857 -9.344550133 -5.855408192
39.84579086 -9.46774292 -5.855978012
39.97750092 -9.242898941 -6.123027802
39.94126129 -9.363698959 -6.12184
39.9267807 -9.489622116 -6.124067783
40.01231003 -9.228337288 -6.391602993
39.98284912 -9.350824356 -6.391448021
39.96358109 -9.475726128 -6.392994881
40.05566025 -9.255691528 -6.634530067
40.05783081 -9.385744095 -6.639657021
