# .PCD v0.7 - Point Cloud Data file format
VERSION 0.7
FIELDS x y z
SIZE 4 4 4
TYPE F F F
COUNT 1 1 1
WIDTH 141
HEIGHT 1
VIEWPOINT 0 0 0 1 0 0 0
POINTS 141
DATA ascii
13.27143955 -25.56722069 -5.889419079
13.16736984 -25.55818939 -5.87792778
13.07775021 -25.57666016 -5.872889042
13.33154011 -25.49581909 -6.054934978
13.24514961 -25.52098083 -6.051205158
13.15917015 -25.54670906 -6.047681808
13.08028984 -25.58609009 -6.047474861
12.99376965 -25.61038971 -6.043745041
12.63574982 -25.68102074 -6.023229122
12.54617023 -25.69767952 -6.018048763
12.45363045 -25.70788002 -6.011416912
12.37003994 -25.7362709 -6.009138107
12.28302002 -25.7573204 -6.005199909
12.20602989 -25.79929924 -6.00623703
13.24507999 -25.53614044 -6.22203207
13.13179016 -25.50889969 -6.205441952
13.05790997 -25.55776978 -6.207569122
12.97325993 -25.58550072 -6.204590797
12.88943005 -25.61470985 -6.202038765
12.79506969 -25.62266922 -6.194382191
12.70337963 -25.63553047 -6.18800211
12.61561966 -25.65596962 -6.183535099
12.53256035 -25.68577957 -6.181407928
12.44987011 -25.71619034 -6.179493904
12.36330032 -25.73841095 -6.175664902
12.28133011 -25.77004051 -6.17417717
12.20347023 -25.81024933 -6.174815178
12.12174034 -25.84226036 -6.173539162
13.24547958 -25.51954079 -6.408244133
13.13181973 -25.49152946 -6.390956879
13.04821968 -25.52127075 -6.388330936
12.97074986 -25.56291962 -6.38876915
12.80535984 -25.6254406 -6.38461113
12.70456982 -25.62002945 -6.373451233
12.61643982 -25.63961983 -6.368637085
12.53001022 -25.66242981 -6.364697933
12.44484043 -25.68757057 -6.361415863
12.27857971 -25.74584007 -6.357038975
12.19703007 -25.77808952 -6.355725765
12.1203804 -25.82069016 -6.357038975
12.04234028 -25.86041069 -6.357696056
11.95804024 -25.88660049 -6.355070114
13.30543041 -25.45231056 -6.580226898
13.23805046 -25.51376915 -6.585618019
12.9673996 -25.56501007 -6.567648888
12.87357998 -25.57420921 -6.559788227
12.77285004 -25.56912041 -6.548333168
12.68785 -25.59509087 -6.544962883
12.59895039 -25.61290932 -6.539573193
12.51860046 -25.64793968 -6.538673878
12.42881012 -25.66341972 -6.532835007
12.34875011 -25.69879913 -6.532161236
12.26021004 -25.71632957 -6.526995182
12.18000031 -25.75118065 -6.526320934
12.09762955 -25.78137016 -6.524524212
12.01436043 -25.80953026 -6.522277832
11.93879986 -25.85423088 -6.524299145
11.87199974 -25.91819954 -6.531261921
11.82427025 -26.02458954 -6.549005985
13.32688999 -25.49776077 -6.761144161
13.23561001 -25.51347923 -6.754473209
13.1563797 -25.55223083 -6.754013062
13.05136013 -25.54047966 -6.740210056
12.96765995 -25.56999016 -6.737449169
12.87864971 -25.58879089 -6.731927872
12.78964996 -25.60728073 -6.726407051
12.72657967 -25.67778969 -6.734687805
12.64043999 -25.70186996 -6.730778217
12.25207043 -25.70395088 -6.691208839
12.14943981 -25.69127083 -6.678095818
12.09288025 -25.77599907 -6.690518856
12.01128006 -25.80768967 -6.689137936
11.92959976 -25.83910942 -6.687757969
11.81229019 -26.0030899 -6.711452961
11.77163029 -26.12615967 -6.733997822
13.22889042 -25.5049305 -6.932128906
13.14791012 -25.54022026 -6.93071413
13.06418991 -25.57004929 -6.927884102
12.97644997 -25.59181023 -6.922932148
12.89262962 -25.6210804 -6.920102119
12.80268002 -25.63791084 -6.913970947
12.70584011 -25.64049911 -6.904067039
12.6181097 -25.66103935 -6.899114132
12.52867031 -25.67779922 -6.893218994
12.43924999 -25.69425011 -6.887322903
12.34941959 -25.7095108 -6.881192207
12.26463032 -25.73500061 -6.87789011
12.18021965 -25.76108932 -6.874825001
12.09988976 -25.79569054 -6.874116898
12.01576996 -25.82212067 -6.871286869
11.9401598 -25.86680031 -6.873410225
11.75905991 -26.10318947 -6.907368183
13.12096977 -25.49230957 -7.087090969
13.03740025 -25.52206993 -7.084197044
12.96035957 -25.5645504 -7.08491993
12.87401962 -25.58859062 -7.08057785
12.78417969 -25.60539055 -7.074306011
12.69349957 -25.62014008 -7.067551136
12.59813976 -25.625 -7.058142185
12.51222992 -25.64870071 -7.054040909
12.42459965 -25.66861916 -7.048974991
12.33528996 -25.6847496 -7.042943954
12.2530899 -25.71546936 -7.041014194
12.17164993 -25.74766922 -7.039566994
12.08642006 -25.77172089 -7.0359478
12.00646973 -25.8069191 -7.035464764
11.96059036 -25.9158802 -7.05524683
11.80937958 -26.00645065 -7.060071945
13.19981956 -25.42923927 -7.268180847
13.01708031 -25.45799065 -7.253351212
12.76661968 -25.54550934 -7.244452
12.73725986 -25.68351936 -7.272630215
12.16621017 -25.71042061 -7.215287209
12.09179974 -25.75727081 -7.218006134
13.83428001 41.87760162 -7.944131851
13.96642971 41.84616089 -7.946269989
14.97525978 30.45965958 -6.946360111
12.36299992 34.23374939 -7.670491219
12.46763992 34.1947403 -7.670282841
14.72616005 30.88072014 -7.407350063
34.59848022 -46.37532043 -6.503151894
31.24887085 -29.55851936 -5.632270813
31.19681931 -29.6911602 -5.639328957
31.15999985 -29.83885002 -5.649261951
24.8253994 -26.88260078 -6.808868885
24.02840042 -27.00016022 -6.724987984
40.59616089 -8.852489471 -3.897285938
40.63967133 -8.879481316 -4.143640995
40.76316071 -8.621937752 -4.42219305
40.72679901 -8.744869232 -4.421129227
40.76078033 -8.769698143 -4.675556183
39.8257103 -9.460342407 -5.598010063
39.86212158 -9.342517853 -5.854125977
39.81111908 -9.459506035 -5.850850105
39.97172928 -9.24156189 -6.12213707
39.92778015 -9.360539436 -6.11976099
39.90367889 -9.484134674 -6.120502949
40.01134872 -9.228115082 -6.391448021
39.98189163 -9.350599289 -6.391293049
39.94820023 -9.472078323 -6.390520096
40.01828003 -9.506085396 -6.637895107
