# .PCD v0.7 - Point Cloud Data file format
VERSION 0.7
FIELDS x y z
SIZE 4 4 4
TYPE F F F
COUNT 1 1 1
WIDTH 269
HEIGHT 1
VIEWPOINT 0 0 0 1 0 0 0
POINTS 269
DATA ascii
10.68227959 27.94343948 -7.774444103
14.89848995 30.5397892 -6.954222202
14.95020008 30.40867996 -6.93466711
12.49812984 34.27838135 -7.689140797
14.78783035 30.30783081 -7.103927135
14.57415009 30.08539963 -7.236985207
14.65351963 30.01420021 -7.230605125
24.42815018 -36.56380081 -6.016507149
24.25896072 -36.79735947 -6.03042078
24.45365906 -37.84616089 -6.166008949
24.41180038 -38.03689957 -6.184969902
24.41799927 -38.30458069 -6.216479778
24.36449051 -38.48059082 -6.23298502
25.5730896 -35.38940811 -6.245594978
25.30315018 -35.47232819 -6.23263216
24.45051956 -36.12031937 -6.239184856
24.37990952 -36.25511932 -6.249584198
24.35379028 -36.45732117 -6.271665096
24.3507309 -36.69599152 -6.300014019
24.30886078 -36.87796021 -6.318532944
24.31109047 -37.1287384 -6.348875999
24.35951042 -37.45289993 -6.391756058
24.35905075 -38.21720886 -6.484210014
25.46570015 -35.24536896 -6.491011143
25.30842972 -35.25503922 -6.478387833
25.16511917 -35.28340912 -6.469329834
25.03330994 -35.32736969 -6.4632411
24.93107033 -35.41289902 -6.464875221
24.77469063 -35.42115021 -6.452401161
24.47448921 -35.68682098 -6.459528923
24.37100983 -35.77072906 -6.46116209
24.30550003 -35.91083908 -6.473042011
24.26252937 -36.08536148 -6.491158962
24.24131966 -36.53596115 -6.545659065
24.29186058 -37.10432053 -6.621097088
24.31270027 -37.38592148 -6.658222198
24.89027023 -35.08581161 -6.697773933
24.83999062 -35.24356842 -6.713399887
24.69832039 -35.27185822 -6.704271793
24.59225082 -35.35071182 -6.704891205
24.31038094 -35.64085007 -6.71726799
31.30145073 -29.6082592 -5.641811848
31.18077087 -29.85873032 -5.653051853
30.95989037 -27.89451981 -5.959259033
24.36882973 -26.88631058 -6.529183865
24.8896904 -26.78685951 -6.803903103
24.23967934 -26.90333939 -6.737864017
24.13669968 -26.95487976 -6.732161999
24.05584908 -27.03100014 -6.732714176
24.47373009 -26.84313011 -6.975618839
24.37412071 -26.89916992 -6.97068882
34.16550827 5.489262104 -3.874037027
34.26169968 5.396941185 -3.883136988
34.20082855 5.17249918 -3.872464895
34.26272964 5.074388981 -3.877743959
33.8569603 7.489531994 -4.096734047
33.81187057 7.370819092 -4.088445187
33.84014893 7.268301964 -4.089156151
33.84479904 7.160748005 -4.087024212
33.82675934 7.048573971 -4.08217001
33.64765167 5.940639019 -4.036229134
33.6715889 5.838398933 -4.036940098
33.71577072 5.739569187 -4.04013586
33.7057991 5.631521225 -4.036820889
33.76504898 5.534994125 -4.041913033
33.80245972 5.434689045 -4.044398785
33.92784882 5.34812212 -4.057541847
34.05302811 5.260837078 -4.070683956
34.11220932 5.162878036 -4.075893879
34.11806107 5.056742191 -4.074709892
33.80443954 7.373037815 -4.308190823
33.80458069 7.264496803 -4.305325031
33.75099945 7.144721985 -4.295602798
33.40560913 6.964581966 -4.248487949
33.40155029 6.856873989 -4.245247841
33.33684158 6.73706913 -4.234280109
33.29021072 6.621403217 -4.225678921
33.32400131 6.521906853 -4.227424145
33.3478508 5.996979237 -4.21820116
33.36610031 5.894640923 -4.21820116
33.40552902 5.795979023 -4.220942974
33.40066147 5.689631939 -4.218076229
33.45220947 5.592862129 -4.222438812
33.49956131 5.495184898 -4.226303101
33.53292084 5.395063877 -4.228422165
33.62575912 5.304223061 -4.238142967
33.80953979 5.226963997 -4.259457111
34.06184006 5.159029961 -4.289494991
34.07162094 5.053631783 -4.288746834
33.7986908 7.378798962 -4.522373199
33.85218811 7.281742096 -4.526556015
33.2686615 5.464127064 -4.406311989
33.33126831 5.369443893 -4.412455082
33.44062042 5.281850815 -4.424870968
33.90734863 5.24898386 -4.484992981
34.05268097 5.164552212 -4.502244949
34.09582901 5.064133167 -4.505905151
33.7939415 7.695737839 -4.734006882
33.84011078 7.379314899 -4.730732918
33.83644104 7.269842148 -4.727049828
33.86923981 7.168254852 -4.728549957
32.95866013 6.764526844 -4.594461918
32.91711044 6.65082407 -4.585731983
32.93833923 6.549996853 -4.585867882
32.9466095 6.446630001 -4.5842309
32.93024063 6.33859396 -4.579185009
32.92227936 6.232376099 -4.575365067
32.94319153 6.131704807 -4.575637817
32.94723129 6.027934074 -4.573592186
32.95972061 5.925773144 -4.57277298
32.98262024 5.825488091 -4.573454857
33.11222839 5.430241108 -4.581912994
33.12776184 5.328471184 -4.581776142
33.36999893 5.262456894 -4.613286018
33.72668839 5.212707996 -4.660756111
34.10102081 5.163489819 -4.710680962
34.10395813 5.056955814 -4.708908081
33.90472031 7.500093937 -4.959216118
33.84246063 7.377488136 -4.946680069
33.86687088 7.27404213 -4.946965218
32.77910995 5.994912148 -4.757497787
32.79832077 5.894494057 -4.757640839
32.81235886 5.793153763 -4.757071018
32.82997131 5.69246006 -4.757071018
32.8619194 5.594202995 -4.759208202
32.91505051 5.49939394 -4.76447916
32.98548889 5.407193184 -4.772314072
33.0243988 5.309584141 -4.775589943
33.0424881 5.208549023 -4.775875092
34.13077164 5.165688038 -4.929728031
34.13666916 5.059500217 -4.928302765
33.88307953 7.384000778 -5.168917179
32.68292999 5.975059986 -4.950622082
32.70111084 5.874763012 -4.950622082
32.72676849 5.775784016 -4.951809883
32.73947144 5.674509048 -4.951066971
32.7635498 5.575200081 -4.952106953
32.78536987 5.47547102 -4.952848911
32.79909134 5.374382019 -4.952404022
32.81542969 5.273729801 -4.952404022
32.84902954 5.175799847 -4.955077171
32.89896011 5.080279827 -4.96027422
34.15327835 5.059658051 -5.146048069
33.8782692 7.402359009 -5.391708851
33.88536072 7.295061111 -5.389234066
32.66056061 5.886014938 -5.158250809
32.72068024 5.380009174 -5.154074192
32.7766304 5.079837799 -5.155312061
34.07651138 5.174245834 -5.358756065
34.11664963 5.073307991 -5.362624168
33.8705101 7.38594389 -5.5884161
33.87854004 7.278885841 -5.586011887
34.09917068 5.056247234 -5.55685091
33.83005142 7.374783039 -5.798814774
34.09727097 5.053659916 -5.772713184
32.41281128 6.246220112 -5.739894867
32.44245911 6.148766994 -5.741792202
32.51416016 5.852880955 -5.744722843
32.4715004 5.53715086 -5.727824211
32.37363815 5.316252232 -5.704544067
32.46953964 5.229753017 -5.718684196
32.53800964 5.036151886 -5.725236893
32.29304123 6.940524101 -5.939801216
32.29396057 6.837138176 -5.936059952
32.29455948 6.733811855 -5.932320118
32.29867935 6.63133812 -5.929292202
32.34394836 6.537282944 -5.933922768
32.38983154 6.133840084 -5.928044796
32.41233826 5.932328224 -5.925374031
32.4303894 5.832859993 -5.925374031
32.38957977 5.518270016 -5.908274174
32.42770004 5.422442913 -5.912192822
32.47137833 5.327391148 -5.917180061
32.49145889 5.22837019 -5.917891979
32.51026154 5.129123211 -5.918426991
32.53070068 5.030109882 -5.919316769
32.31763077 6.949440002 -6.147195816
32.28779984 6.632715225 -6.129537106
32.29932022 6.531873226 -6.127882004
32.28160858 6.42526722 -6.120707989
32.30696106 6.327331066 -6.121810913
32.31850052 6.226696968 -6.120338917
32.32683182 6.125504017 -6.118316174
32.34354019 6.025938034 -6.117948055
32.35316849 5.925086975 -6.116292
32.35765076 5.823363781 -6.113717079
32.38311005 5.725432873 -6.115189075
32.37728119 5.622021198 -6.11077404
32.39825058 5.523323059 -6.1115098
32.41601181 5.424063206 -6.111693859
32.44316864 5.326337814 -6.113717079
32.45838928 5.226622105 -6.11353302
32.50539017 5.02976799 -6.116477013
32.29740143 6.936925888 -6.340046883
32.29162979 6.832116127 -6.334737778
32.3229599 6.425377846 -6.324879169
32.29916 6.317699909 -6.316346169
32.31454086 6.217835903 -6.315587997
32.31417084 6.115015984 -6.311796188
32.32118988 6.013692856 -6.309519768
32.33658981 5.913974762 -6.308950901
32.34394836 5.812829018 -6.306866169
32.3655014 5.714254856 -6.307623863
32.37126923 5.612918854 -6.305348873
32.40285873 5.516050816 -6.308193207
32.50399017 5.123660088 -6.315207958
32.49335861 5.019866943 -6.310089111
32.26585007 6.824398994 -6.53869009
32.27127075 6.722176075 -6.535560131
32.28501892 6.621757984 -6.534191132
32.29365158 6.520348072 -6.531844139
32.41110992 5.412951946 -6.514825821
32.4362793 5.314918995 -6.516585827
32.47021103 5.116097927 -6.516977787
32.42078018 6.869891167 -6.781457901
32.44361877 6.770792961 -6.781860828
32.30305099 6.638109207 -6.747993946
32.46546173 5.229999065 -6.728641987
32.44644928 6.873057842 -6.986013889
32.42121124 5.424932003 -6.923637867
32.42419052 5.32322216 -6.92073679
22.17708015 0.6799185872 -6.577716827
22.43382072 2.005858898 -6.815012932
22.15203094 1.570279002 -6.718915939
21.96744919 1.421795011 -6.659801006
21.96598053 1.354040027 -6.658053875
21.96430016 1.286306977 -6.65630722
21.95381927 1.218122005 -6.651938915
22.03770065 1.15496397 -6.676400185
22.10662079 0.8866996765 -6.693581104
22.14365005 0.8201463223 -6.704063892
22.45148087 1.936261058 -6.964782238
22.40393066 1.793740988 -6.946375847
22.37314987 1.722213984 -6.93509388
21.92514038 1.349787951 -6.788140774
22.02494049 1.084810972 -6.814562798
22.09003067 0.8164234161 -6.831188202
22.18717003 0.5474724174 -6.858798027
22.15723991 0.4787203968 -6.849000931
22.20442963 0.4115894139 -6.863251209
22.36701965 1.935076952 -7.076239109
22.3243103 1.793447018 -7.05901289
21.99327087 0.8863704801 -6.936923027
21.97112083 0.8179693818 -6.929065228
22.04973984 0.7531638145 -6.953241825
22.05862045 0.6857200265 -6.955357075
22.1282692 0.6199384928 -6.976813793
22.14150047 0.5523325205 -6.98044014
22.1869297 0.4853605032 -6.994340897
22.22262955 0.4179354906 -7.00522089
21.91555977 0.9450287223 -7.043838978
21.95708084 0.8118777275 -7.055519104
21.96422005 0.7446718812 -7.057054996
22.11193085 0.6817777753 -7.104081154
40.75209045 -8.767828941 -3.646013021
40.6652298 -8.867547989 -3.903980017
40.62586975 -8.745965004 -4.139441013
40.59786987 -8.870349884 -4.139340878
40.69118118 -8.606708527 -4.414317131
40.78786087 -8.765943527 -5.202611923
39.91917038 -9.353256226 -5.607149124
39.8748703 -9.472019196 -5.604967117
39.86022949 -9.471175194 -5.858115196
40.03145981 -9.255372047 -6.131343842
39.97206879 -9.370921135 -6.126592159
39.95275116 -9.495796204 -6.12807703
40.04216003 -9.235220909 -6.396399021
40.02421951 -9.360500336 -6.398099899
39.98666 -9.481197357 -6.396708012
