# .PCD v0.7 - Point Cloud Data file format
VERSION 0.7
FIELDS x y z
SIZE 4 4 4
TYPE F F F
COUNT 1 1 1
WIDTH 321
HEIGHT 1
VIEWPOINT 0 0 0 1 0 0 0
POINTS 321
DATA ascii
-22.9996109 -6.363633156 -5.601233006
-22.96744919 -6.352851868 -5.742650032
-22.77442932 -7.441166878 -5.915850163
-22.80916023 -7.375143051 -5.918985844
-22.86693001 -7.239151001 -5.922362804
-22.99629021 -6.3589468 -5.891002178
-22.93424988 -6.26610899 -5.870013237
-22.75215912 -7.521376133 -6.07238102
-22.90249062 -7.106190205 -6.076582909
-22.98888016 -6.519000053 -6.055078983
-22.88557053 -6.338256836 -6.017262936
-22.90117073 -6.266993046 -6.016273975
-22.68115997 -7.64627409 -6.212227821
-22.73938942 -7.588290215 -6.221831799
-22.75797081 -7.516973972 -6.220569134
-22.84553909 -7.313391209 -6.225875854
-22.87066078 -7.013203144 -6.208690166
-22.9344902 -6.573448181 -6.192008018
-22.90613937 -6.489342213 -6.17886591
-22.90452003 -6.413036823 -6.173052788
-22.89423943 -6.334480762 -6.164965153
-22.99196053 -6.285643101 -6.186194897
-22.63110924 -7.713693142 -6.352732182
-22.65740967 -7.645152092 -6.353507042
-22.67526054 -7.573768139 -6.351956844
-22.68737984 -7.500525951 -6.348856926
-22.70111084 -7.427883148 -6.346273899
-22.70907974 -7.353439808 -6.342141151
-22.71221924 -7.277544022 -6.336716175
-22.7123394 -7.200821877 -6.330516815
-22.71311951 -7.124456882 -6.324574947
-22.71641922 -7.049014091 -6.319408894
-22.72224045 -6.974469185 -6.315018177
-22.73336029 -6.901638031 -6.312177181
-22.74054909 -6.827692986 -6.308301926
-22.76231003 -6.758169174 -6.308559895
-22.77737999 -6.68667078 -6.307010174
-22.79129028 -6.614873886 -6.305202007
-22.80591011 -6.543322086 -6.30365181
-22.83052063 -6.474640846 -6.304944038
-22.83912086 -6.40143919 -6.30184412
-22.86050987 -6.33185482 -6.302361012
-22.9543705 -6.282093048 -6.32302618
-22.58485985 -7.464718819 -6.466759205
-22.60490036 -7.39449501 -6.465967178
-22.65501022 -7.334022999 -6.473883152
-22.70952034 -6.968669891 -6.458051205
-22.7407608 -6.82586813 -6.454885006
-22.76436996 -6.756890774 -6.455676079
-22.74889946 -6.676424026 -6.445384979
-22.75815964 -6.603374004 -6.442217827
-22.78108978 -6.534319878 -6.443009853
-22.79917908 -6.463871002 -6.442481995
-22.81611061 -6.393113136 -6.441690922
-22.84398079 -6.325400829 -6.444066048
-22.86421013 -6.255541801 -6.444328785
-22.75927925 -6.609348774 -6.589818954
-22.74889946 -6.530725956 -6.580927849
-22.77438927 -6.462480068 -6.582544804
-22.82753944 -6.32647419 -6.586585999
-22.81804085 -6.24852705 -6.578234196
-22.78401947 -6.530322075 -6.73766613
-22.8736496 -6.404396057 -6.752513885
-22.91820908 -6.341113091 -6.759937763
-22.94311905 -6.272292137 -6.761588097
-22.63014984 -7.556227207 -7.376251221
-22.65323067 -7.486763 -7.376251221
-22.6615696 -7.412478924 -7.371500015
-22.65239906 -7.33262682 -7.36111021
-22.66661072 -7.260474205 -7.358438015
-22.68058968 -7.188302994 -7.35576582
-22.68977928 -7.114686966 -7.351610184
-22.67774963 -7.034574986 -7.340625763
-22.97896004 -7.601374149 -7.63199091
-22.93176079 -7.352304935 -7.593308926
-22.94511986 -7.279034138 -7.590287209
-22.8773098 -7.180344105 -7.560369015
-22.92198944 -7.117189884 -7.567924023
-22.71793938 -6.749303818 -7.472125053
-22.72299004 -6.675006866 -7.466988087
-22.73786926 -6.603666782 -7.465175152
-22.76535034 -6.535982132 -7.467591763
-22.79355049 -6.468451023 -7.470312119
-22.94849968 -6.20916605 -7.495697021
-22.69965935 -6.813527107 -7.613677979
-22.66389084 -6.727063179 -7.594623089
-22.68077087 -6.656426907 -7.593392849
-22.69651985 -6.585485935 -7.591856003
-22.71479034 -6.51529789 -7.591240883
-22.72550964 -6.442984104 -7.588168144
-22.75799942 -6.376828194 -7.592471123
-22.75728035 -6.301389217 -7.585709095
-22.78109932 -6.232797146 -7.587245941
-22.96179008 -6.206585884 -7.641341209
14.92615986 31.04929924 -6.832095146
14.98927975 30.93716049 -6.817424774
14.57532978 30.32460022 -7.283988953
14.57499981 30.08716011 -7.237411022
14.6779604 30.06425095 -7.242728233
31.34590912 -29.4686203 -5.63344717
31.21943092 -29.89575958 -5.660109997
24.28059006 -29.22182083 -6.128376961
24.1870594 -29.29161072 -6.12741518
24.43985939 -29.05279922 -6.36207819
24.09963036 -27.0802002 -6.745038986
21.59123039 -1.917791963 -6.023758888
21.31763077 -1.968626022 -6.081871986
22.33492088 -1.569733024 -6.506495953
21.01980019 -1.996780038 -6.133490086
20.94001961 -2.054044008 -6.111878872
20.89637947 -2.114510059 -6.100933075
20.9337101 -2.183187962 -6.113842964
20.88014984 -2.242381096 -6.100090981
20.8483696 -2.303689003 -6.092792988
20.8364296 -2.367099047 -6.091390133
20.84145927 -2.432459116 -6.095038891
20.8129406 -2.49387598 -6.08886385
20.82995987 -2.560761929 -6.096160889
20.83819008 -2.62669611 -6.100933075
20.78054047 -2.684221983 -6.086338043
20.79122925 -2.750479937 -6.091950893
20.79410934 -2.815798998 -6.095318794
20.78727913 -2.87984395 -6.095880985
20.80400085 -2.947240114 -6.103458881
22.22304916 -1.571413994 -6.60487318
22.10248947 -1.631059051 -6.570284843
22.09165001 -1.698420048 -6.568570137
20.73689079 -2.043118 -6.174945831
20.71908951 -2.105566025 -6.171515942
20.70014 -2.16782403 -6.16779995
20.68291092 -2.230191946 -6.164656162
20.68264008 -2.294374943 -6.166656017
20.66407967 -2.356514931 -6.163226128
20.65389061 -2.419565916 -6.162368774
20.65398026 -2.483834982 -6.164656162
20.63676071 -2.546015978 -6.161797047
20.63405037 -2.674315929 -6.165799141
20.63430023 -2.738742113 -6.168372154
20.65411949 -2.870443106 -6.17952013
20.64806938 -2.934200048 -6.180377007
22.03624916 -1.552986979 -6.683389187
21.80908012 -1.604222059 -6.615539074
20.71249008 -1.971503019 -6.292303085
21.28590965 -1.698799014 -6.597548008
21.08456039 -1.747841001 -6.536390781
20.93448067 -1.800081968 -6.491267204
20.85658073 -1.857859015 -6.468704224
20.73381996 -1.911054969 -6.432188988
20.67461967 -1.969583988 -6.41556406
20.56394958 -2.022718906 -6.382906914
20.54719925 -2.084738016 -6.37964201
20.4766407 -3.29203701 -6.406657219
20.92650986 -1.729084969 -6.615680218
20.84893036 -1.78709197 -6.592712879
20.74080086 -1.841943026 -6.560074806
20.57272911 -1.890650988 -6.508398056
20.49566078 -1.946998954 -6.485733032
20.46966934 -2.007915974 -6.479386806
20.4027195 -2.064565897 -6.460044861
20.37002945 -3.141220093 -6.492986202
20.31226921 -3.196144104 -6.477572918
20.33342934 -3.263431072 -6.487545967
20.34589958 -3.3294909 -6.494799137
20.75551033 -1.78442204 -6.687304974
20.50065041 -1.825903058 -6.606471062
20.44852066 -1.884513021 -6.59141016
20.36875916 -1.940204978 -6.567437172
20.29641914 -1.996170044 -6.545921803
20.26936913 -2.056318045 -6.539159775
20.23645973 -2.115724087 -6.530553818
20.19581985 -2.174134016 -6.519488811
20.16634941 -2.233571053 -6.512112141
20.14900017 -2.294245958 -6.508730888
20.12957954 -2.354614973 -6.504735947
20.11848068 -2.415906906 -6.503506184
20.16749001 -2.862346888 -6.537930012
20.19062996 -2.928848982 -6.548379898
20.19379044 -2.992592096 -6.552375793
20.22685051 -3.060935974 -6.566206932
20.22958946 -3.124865055 -6.570202827
20.26314926 -3.193726063 -6.584341049
20.27861977 -3.259953976 -6.592639923
20.27795029 -3.387612104 -6.599093914
20.3044796 -1.866232038 -6.678315163
20.17519951 -2.10431695 -6.643571854
20.14031982 -2.163158894 -6.634181976
20.12225914 -2.22368598 -6.63042593
20.09268951 -2.282835007 -6.622913837
20.09502983 -2.345570087 -6.626043797
20.08868027 -2.40732193 -6.626357079
20.08403015 -2.469290018 -6.627295971
20.09332085 -2.53303504 -6.632929802
20.08922005 -2.595155001 -6.634181976
20.09905052 -2.659142971 -6.640129089
20.16044998 -2.730230093 -6.663290977
20.11811066 -2.78737402 -6.652022839
20.12545013 -2.851347923 -6.657343864
20.13633919 -2.915937901 -6.663917065
20.15830994 -2.982290983 -6.674245834
20.15563965 -3.045114994 -6.676436901
20.20627022 -3.116204977 -6.69646883
20.25009918 -3.186600924 -6.714310169
20.27773094 -3.254734993 -6.726830006
20.25358963 -3.314629078 -6.722135067
20.25270081 -3.378314018 -6.725265026
21.16189003 -1.68889904 -7.086425781
20.68453979 -1.77858603 -6.929186821
20.39949036 -1.817134023 -6.834970951
20.30036926 -1.871094942 -6.803460121
20.22941017 -1.927162051 -6.781497002
20.19887924 -1.986803055 -6.773221016
20.15496063 -2.044934034 -6.760488987
20.1231308 -2.104096889 -6.751894951
20.10433006 -2.164505005 -6.747757912
20.08345985 -2.224607944 -6.742982864
20.06806946 -2.285247087 -6.74011898
20.05624962 -2.346252918 -6.738526821
20.0517807 -2.408113003 -6.739481926
20.05088997 -2.470432043 -6.741710186
20.05073929 -2.532886028 -6.74425602
20.05133057 -2.595484018 -6.747120857
20.05360985 -2.658359051 -6.750621796
20.05475998 -2.721144915 -6.753805161
20.07448006 -2.786570072 -6.763353825
20.09211922 -2.851875067 -6.772266865
20.11705017 -2.918404102 -6.783724785
20.13238907 -2.983721972 -6.792000771
20.15218925 -3.049871922 -6.801867962
20.17740059 -3.117038965 -6.813644886
20.18460083 -3.181585073 -6.819375038
20.18691063 -3.245451927 -6.823513031
20.21054077 -3.312890053 -6.834970951
20.24235916 -3.381910086 -6.849295139
20.26646996 -3.449883938 -6.861072063
20.62731934 -1.775349021 -7.026667118
20.55201912 -1.832406998 -7.002758026
20.24286079 -1.867462993 -6.898723125
20.21442986 -1.927402973 -6.890967846
20.16604042 -1.985239983 -6.876429081
20.1306591 -2.044136047 -6.866413116
20.10642052 -2.104015112 -6.860274792
20.08198929 -2.163764954 -6.85413599
20.06678963 -2.224426985 -6.851228237
20.05422974 -2.285337925 -6.84928894
20.04711914 -2.346853018 -6.84928894
20.03982925 -2.408344984 -6.84928894
20.03610039 -2.470278025 -6.850582123
20.04438972 -2.53375411 -6.856073856
20.07312965 -2.599977016 -6.868675232
20.07349968 -2.662668943 -6.871582985
20.08024025 -2.726278067 -6.8767519
20.12145996 -2.794770002 -6.893876076
20.13528061 -2.859680891 -6.901629925
20.12734985 -2.92157793 -6.90195322
20.13607979 -2.985950947 -6.908092022
20.15863991 -3.052531004 -6.91907692
20.17723083 -3.118697882 -6.928770065
20.18720055 -3.183681965 -6.935554981
20.21097946 -3.251010895 -6.947185993
20.20651054 -3.313920021 -6.949124813
20.26345062 -3.387130022 -6.972386837
20.52885056 -1.761340976 -7.121410847
20.22701073 -1.86055398 -7.019944191
20.2089901 -1.921439052 -7.015675068
20.16163063 -1.979372025 -7.001226902
20.09156036 -2.034749985 -6.978898048
20.08334923 -2.096184015 -6.978240013
20.0636692 -2.156377077 -6.973642826
20.04851913 -2.216986895 -6.970687866
20.05006981 -2.279444933 -6.973642826
20.03640938 -2.34017992 -6.971344948
20.03289032 -2.402089119 -6.972658157
20.0985508 -2.472529888 -6.998270988
20.1077404 -2.536305904 -7.004181862
20.10453987 -2.598588943 -7.005824089
20.10584068 -2.661495924 -7.009108067
20.11161995 -2.725069046 -7.014032841
20.10971069 -2.78766489 -7.01633215
20.12818909 -2.853189945 -7.025855064
20.1212101 -2.915199995 -7.026511192
20.09067917 -2.973737001 -7.018959045
20.16271973 -3.047637939 -7.047526836
20.17848015 -3.113368988 -7.056393147
20.18283081 -3.177464008 -7.061318874
20.18604088 -3.241465092 -7.065916061
20.28039932 -3.320466995 -7.102694035
20.40427971 -3.405050993 -7.149979115
20.25778008 -3.444525957 -7.102036953
20.11264992 -1.914373994 -7.112691879
20.21925926 -1.987140059 -7.152749062
20.11178017 -2.038887978 -7.116697788
20.03792953 -2.093523979 -7.092663765
20.07265091 -2.159429073 -7.10735178
20.04532051 -2.218718052 -7.100008011
20.02437019 -2.278605938 -7.095001221
20.02758026 -2.341233969 -7.098671913
20.02779007 -2.403565884 -7.101343155
20.02687073 -2.465806007 -7.103680134
20.0360508 -2.52936101 -7.109687805
20.05344009 -2.594085932 -7.118700981
20.04818916 -2.655967951 -7.119701862
20.11654091 -2.727854013 -7.147075176
20.11367989 -2.79033494 -7.149076939
40.60588837 -8.854610443 -3.898228884
40.62995148 -8.877356529 -4.142641068
40.7203598 -8.612883568 -4.417510033
39.91389847 -9.222935677 -5.602375031
39.83718872 -9.33404541 -5.595554829
39.81029892 -9.456678391 -5.595828056
39.8915596 -9.22040081 -5.854269028
39.84572983 -9.33867836 -5.851704121
39.79571152 -9.455845833 -5.84856987
39.95824051 -9.238444328 -6.12005806
39.90274811 -9.354670525 -6.11590004
39.86904907 -9.475904465 -6.115158081
40.36471939 -9.724625587 -6.196238995
40.02482986 -9.23122406 -6.393613815
40.00209045 -9.355324745 -6.394542217
39.96455002 -9.475954056 -6.393148899
40.09605026 -9.265026093 -6.641259193
40.08761978 -9.392724991 -6.644624233
