# .PCD v0.7 - Point Cloud Data file format
VERSION 0.7
FIELDS x y z
SIZE 4 4 4
TYPE F F F
COUNT 1 1 1
WIDTH 57
HEIGHT 1
VIEWPOINT 0 0 0 1 0 0 0
POINTS 57
DATA ascii
10.60558033 27.74279976 -7.718335152
14.96619034 30.44120026 -6.942125797
14.53849983 30.24798012 -7.265485764
14.55498028 30.04582977 -7.227414131
24.93469048 -38.32767105 -5.705786228
24.75816917 -38.29771042 -5.973657131
24.58494949 -38.82876968 -6.289731026
24.56168938 -39.05664062 -6.314557076
34.01665878 -36.17913055 -7.108736992
25.65829086 -36.44108963 -6.375943184
24.9870491 -36.6700592 -6.348021984
24.84169006 -36.69818115 -6.339616776
24.75716019 -36.8161087 -6.346881866
24.48974037 -36.9054718 -6.336196899
24.3922596 -38.01152039 -6.461843967
24.51911926 -38.72998047 -6.55885601
24.47621918 -39.46121979 -6.644758224
25.60397911 -36.36867142 -6.640400887
25.1906395 -36.49047852 -6.619907856
24.75061989 -36.56845856 -6.592288017
24.6664505 -36.68606949 -6.599861145
24.53894997 -36.73936844 -6.595850945
24.42284012 -36.80953979 -6.594961166
24.32394981 -36.90576172 -6.598822117
24.50171089 -38.97172928 -6.874139786
31.30167007 -29.79095078 -5.658411026
31.2666893 -29.94101906 -5.668735981
30.98195076 -27.91439056 -5.963531971
32.10889816 -26.1676693 -6.447762012
24.18597031 -29.10794067 -6.104342937
27.31097984 -27.80913925 -6.784738064
24.71404076 -26.76199913 -6.778150082
33.74811935 10.69824028 -7.247132778
18.60544968 46.16007996 -7.754909992
18.7339592 46.07075882 -7.749495983
40.77254105 -8.772229195 -3.647861958
40.6778717 -8.870306015 -3.905205965
40.5424614 -8.85824585 -4.133639812
40.70869064 -8.610413551 -4.416233063
40.53625107 -8.703949928 -4.400267124
40.69083023 -8.754649162 -4.667467117
40.78527832 -8.770180702 -4.936453819
40.77524948 -8.763234138 -5.200992107
39.85406113 -9.209106445 -5.593917847
39.8188591 -9.329751968 -5.592963219
39.77848816 -9.449123383 -5.591326237
39.88190842 -9.218172073 -5.852844238
39.84476852 -9.338452339 -5.851562023
39.80630112 -9.458362579 -5.850137234
39.94377899 -9.235102654 -6.11783123
39.91429901 -9.357379913 -6.11768198
39.87866974 -9.478190422 -6.116641998
40.00556946 -9.226782799 -6.390520096
39.98574066 -9.351499557 -6.391911983
39.94820023 -9.472078323 -6.390520096
40.13066864 -9.27302742 -6.647027016
40.12797928 -9.402182579 -6.651352882
