# .PCD v0.7 - Point Cloud Data file format
VERSION 0.7
FIELDS x y z
SIZE 4 4 4
TYPE F F F
COUNT 1 1 1
WIDTH 93
HEIGHT 1
VIEWPOINT 0 0 0 1 0 0 0
POINTS 93
DATA ascii
14.53003025 30.23036957 -7.261231899
14.57415009 30.08539963 -7.236985207
14.65044975 30.26468086 -7.500834942
14.64140987 30.01086998 -7.448754787
24.49087906 -36.88341904 -5.798389912
24.45896912 -36.6099205 -6.02414608
24.34402084 -36.9263916 -6.051700115
24.48776054 -38.41400909 -6.234350204
24.45439911 -36.12606049 -6.240181923
24.39426994 -36.27648163 -6.253287792
24.32629967 -36.41616821 -6.264542103
24.3178997 -36.64651108 -6.291466236
24.38674927 -36.9961319 -6.338903904
24.33386993 -37.16352081 -6.354858875
24.33791924 -37.41970825 -6.3860569
24.34869957 -37.68875122 -6.419392109
24.33777046 -38.18383026 -6.478510857
24.86388969 -35.31748962 -6.447351933
24.73558044 -35.36523819 -6.442153931
24.62302017 -35.4352684 -6.441114902
24.47224998 -35.68355942 -6.458934784
24.36321068 -35.75928116 -6.45908308
24.25671959 -35.83877945 -6.459973812
24.32212067 -36.17398834 -6.507196903
24.29342079 -36.37179184 -6.529471874
24.31027985 -37.1324501 -6.626144886
24.28735924 -37.34695816 -6.651241779
24.91085052 -35.11481094 -6.703343868
24.81495094 -35.2080307 -6.706593037
24.70171928 -35.27671814 -6.705200195
24.5860405 -35.34178925 -6.703188896
24.37767029 -35.5050087 -6.705665112
24.29534912 -35.61880875 -6.713089943
30.95475006 -27.88987923 -5.958261013
27.35652924 -27.85552025 -6.796120167
24.69936943 -26.74611092 -6.774103165
24.05911064 -27.03466988 -6.733633995
42.70378113 8.484056473 -3.809828043
42.70809937 8.348797798 -3.807890892
42.74036026 8.219049454 -3.808506966
42.70957947 8.077334404 -3.803489923
42.90309143 6.488520145 -3.796799898
42.94052887 6.359490871 -3.798383951
42.95491028 6.227006912 -3.797944069
42.9560585 6.092676163 -3.796360016
42.9962616 5.963871002 -3.798295975
40.67417908 -8.751066208 -3.63897109
42.69971085 8.359904289 -4.082928181
42.71244812 8.226416588 -4.081702232
42.4198494 6.427904129 -4.025509834
42.52996826 6.311175823 -4.034183979
42.81415176 6.219164848 -4.059545994
42.95524979 6.105155945 -4.071237087
42.97771835 5.973890781 -4.071613789
42.69472885 8.34073925 -4.334969044
42.75627899 8.216663361 -4.338668823
41.96852112 7.798538208 -4.253057003
41.99634933 7.271727085 -4.246456146
41.99884033 7.139513969 -4.244455814
42.87532043 6.210083961 -4.31696701
42.92174911 6.082425117 -4.319766998
40.57453918 -8.865253448 -4.136940002
42.75146103 8.375489235 -4.625489235
42.7730484 8.243537903 -4.625062943
42.89641953 6.236505985 -4.602284908
42.95177841 6.110052109 -4.60622406
42.79138947 8.365080833 -4.891241074
42.82954025 8.236198425 -4.892701149
41.43801117 7.973451138 -4.993762016
42.88204956 8.392874718 -5.450895786
41.19200897 7.797783852 -5.734281063
41.20793915 7.669921875 -5.73319006
41.28821945 7.161798 -5.731688976
39.8468399 -9.336305618 -5.59691906
39.81029892 -9.456678391 -5.595828056
41.14854813 7.917748928 -5.992451191
41.18856812 7.663669109 -5.991311073
41.20312119 7.535665989 -5.990028858
41.23091888 7.410096169 -5.990740776
41.25735855 7.284255028 -5.991311073
41.25318146 7.153079033 -5.987464905
41.28371811 7.02797699 -5.98874712
39.87561035 -9.345679283 -5.85612011
39.82075119 -9.461794853 -5.852273941
40.0054512 -9.249358177 -6.127335072
39.94414902 -9.364376068 -6.122285843
39.92581177 -9.489394188 -6.12391901
40.02867889 -9.232111931 -6.394231796
40.00978088 -9.357125282 -6.395780087
39.98184967 -9.480056763 -6.395934105
40.04988098 -9.254359245 -6.63356781
40.01073074 -9.374709129 -6.631805897
39.22016907 11.12032032 -7.097898006
