# .PCD v0.7 - Point Cloud Data file format
VERSION 0.7
FIELDS x y z
SIZE 4 4 4
TYPE F F F
COUNT 1 1 1
WIDTH 1272
HEIGHT 1
VIEWPOINT 0 0 0 1 0 0 0
POINTS 1272
DATA ascii
8.557944298 -19.13694 -7.381741047
8.457922935 -19.07003975 -7.345689774
8.432012558 -19.1701107 -7.374396801
8.364492416 -19.17601967 -7.366718769
8.178056717 -19.22963905 -7.358039856
8.069726944 -19.30293083 -7.367053986
14.89029026 10.76966 -6.799520969
14.94838047 10.74197006 -6.811035156
14.86429977 10.75273991 -6.904794216
14.89721012 10.70707989 -6.904794216
14.96619034 30.44120026 -6.942125797
14.5618 30.05989075 -7.230816841
14.64581966 30.49332047 -7.546568871
14.59230995 30.13314056 -7.677452087
14.6839304 30.31716919 -7.92312479
31.28776932 -29.59531021 -5.639328957
31.25857925 -29.74994087 -5.650568962
31.2666893 -29.94101906 -5.668735981
30.90914917 -27.84880066 -5.949429035
30.92635918 -28.2100296 -5.986183167
30.81012917 -28.45231056 -5.997437
31.20962906 -27.0989399 -6.168171883
31.10847092 -27.17894936 -6.164608002
30.96777916 -27.39290047 -6.169953823
30.94342995 -27.54104042 -6.181982994
30.88973045 -27.66354942 -6.188220024
30.88332939 -27.82901955 -6.204109192
30.83443069 -27.95685005 -6.211534023
33.89760971 9.376349449 -6.752637863
33.67950058 9.984505653 -6.967257023
33.70151138 9.878647804 -6.965497017
33.71376038 9.770019531 -6.961781025
33.74169159 9.66600132 -6.961390018
33.76552963 9.560834885 -6.960216045
33.76070023 9.447683334 -6.953174114
33.92185974 9.380661011 -6.980558872
16.34057999 -6.53224802 -3.688174963
16.15987968 -6.517578125 -3.651495934
16.12348938 -6.560488224 -3.647766113
16.13043976 -6.621068001 -3.653983116
16.12541962 -6.676887989 -3.657505989
16.14908981 -6.744802952 -3.667659998
16.28519058 -6.860404015 -3.703717947
16.26856995 -6.912248135 -3.704754114
16.30303955 -6.986018181 -3.717602015
16.33810043 -7.060451984 -3.730657101
16.32443047 -7.114060879 -3.732522011
16.36611938 -7.192056179 -3.747236013
16.44594002 -7.287415981 -3.770859957
16.39938927 -7.32706213 -3.765264988
16.40538025 -7.390198231 -3.771895885
16.22853088 -7.370504856 -3.736044884
16.38106918 -7.500495911 -3.776870012
16.35176086 -7.547846794 -3.775418997
16.31078911 -7.58972311 -3.77127409
16.26795006 -7.630588055 -3.76671505
16.21703911 -7.667498112 -3.7602911
16.1254406 -7.68480587 -3.744333982
16.0968399 -5.76193285 -3.681883097
15.97340965 -5.773097992 -3.657423973
15.9299202 -5.812698841 -3.651468992
15.94318962 -5.873026848 -3.658699989
16.04232025 -5.965503216 -3.685924053
16.22429085 -6.089887142 -3.732502937
16.23386002 -6.150363922 -3.739097118
16.29796028 -6.23189497 -3.758450985
16.39818954 -6.327948093 -3.786314011
16.36867905 -6.374327183 -3.783973932
16.3726902 -6.433806896 -3.789504051
16.36741066 -6.489768982 -3.792907
16.39006042 -6.557011127 -3.802902937
16.40974045 -6.623353958 -3.812262058
16.36581039 -6.664086819 -3.806731939
16.35885048 -6.719833851 -3.80992198
16.35440063 -6.776722908 -3.813750982
16.35787964 -6.837038994 -3.819493055
16.32151985 -6.880740166 -3.815876961
16.31562042 -6.937281132 -3.819493055
16.29426003 -6.987304211 -3.819493055
16.28799057 -7.043854237 -3.823108912
16.25107956 -7.087152004 -3.819493055
16.24625015 -7.144450188 -3.823534012
16.26087952 -7.210496902 -3.832254887
16.23064995 -7.256762028 -3.830339909
16.20920944 -7.306923866 -3.830553055
16.18581963 -7.356215 -3.830339909
16.22357941 -7.433514118 -3.844803095
16.16522026 -7.466863155 -3.836296082
16.14578056 -7.518072128 -3.837146997
17.01783943 -5.331383228 -3.959598064
16.97271919 -5.431837082 -3.956753016
16.89562988 -5.464369774 -3.942529917
16.08720016 -5.532062054 -3.775347948
16.20196915 -5.62716198 -3.80663991
16.23711014 -5.695247173 -3.819113016
16.17542076 -5.729400158 -3.808609009
16.17429924 -5.784913063 -3.812547922
16.18767929 -5.845774174 -3.819988012
16.1467495 -5.88705492 -3.814517021
16.02696991 -5.899158955 -3.79022789
16.13776016 -5.996212006 -3.821082115
16.16406059 -6.06248188 -3.831804991
16.10432053 -6.096500874 -3.821957111
16.15299034 -6.171646118 -3.838150024
16.13944054 -6.223279953 -3.839462996
16.16665077 -6.290809155 -3.850622892
16.07098007 -6.310424805 -3.832242012
16.06242943 -6.364013195 -3.834867954
16.04463959 -6.413986206 -3.835305929
16.04751015 -6.472302914 -3.840775967
16.04837036 -6.529963017 -3.845808983
16.06255913 -6.593245983 -3.854125023
16.06841087 -6.653316975 -3.86047101
16.06413078 -6.709351063 -3.86440897
16.07403946 -6.771481991 -3.87184906
16.06936073 -6.827630997 -3.875787973
16.07703018 -6.889195919 -3.882791042
16.08270073 -6.950098038 -3.889354944
16.08544922 -7.009930134 -3.895262957
16.09156036 -7.071413994 -3.902046919
16.12421036 -7.144857883 -3.915395021
16.09687042 -7.191905022 -3.914083004
16.09251976 -7.249269962 -3.918458939
16.09063911 -7.307887077 -3.923491955
16.08322906 -7.364121914 -3.927212
16.07029915 -7.417928219 -3.929619074
16.11027908 -7.496418953 -3.945156097
16.11602974 -7.619732857 -3.958065987
17.0069809 -5.272369862 -4.064361095
16.98049927 -5.321315765 -4.061890125
16.9668808 -5.374269009 -4.062563896
16.73594093 -5.357654095 -4.010678768
16.67399025 -5.394274235 -3.99967289
16.47489929 -5.385743141 -3.95542407
16.39723015 -5.416086197 -3.940599918
16.30658913 -5.4416852 -3.922631025
16.23811913 -5.474250793 -3.910053015
16.15299034 -5.50079298 -3.893431902
16.07613945 -5.529717922 -3.878832102
16.10051918 -5.5934062 -3.888938904
16.04006958 -5.627610207 -3.878382921
15.96026993 -5.654660225 -3.863109112
16.03092957 -5.735116005 -3.884671926
16.00592041 -5.781621933 -3.882874966
16.02747917 -5.845058918 -3.892533064
16.03058052 -5.957891941 -3.902190924
15.94198036 -5.980686188 -3.884896994
15.9426899 -6.036815166 -3.889612913
15.94503021 -6.093699932 -3.894778967
15.94172001 -6.148551941 -3.898597956
15.95909977 -6.21157217 -3.907582045
15.97624969 -6.274755955 -3.916567087
15.99225044 -6.33774519 -3.925326109
15.99987984 -6.397634029 -3.93206501
16.00909042 -6.458358765 -3.9392519
16.01176071 -6.516629219 -3.944868088
16.01243019 -6.574234962 -3.950033903
16.03450012 -6.64085722 -3.960589886
16.03742027 -6.69978714 -3.966429949
16.03655052 -6.757283211 -3.971371889
16.03996086 -6.816742897 -3.977436066
16.04763031 -6.878207207 -3.984623909
16.04701996 -6.936302185 -3.989789963
16.05245972 -6.9971838 -3.99652791
16.05768013 -7.05816412 -4.003265858
16.06001091 -7.118058205 -4.009331226
16.05854988 -7.176441193 -4.014496803
16.06578064 -7.23888588 -4.021909237
16.06479073 -7.2978158 -4.027299881
16.06447029 -7.35721302 -4.032915115
16.05598068 -7.413000107 -4.036509037
16.10824966 -7.497179031 -4.05560112
16.14516068 -7.574710846 -4.070874214
17.10861015 -5.190657139 -4.18642807
17.00049973 -5.214865208 -4.163651943
16.97141075 -5.262960911 -4.160431862
16.88368034 -5.292588234 -4.142717838
16.72077942 -5.297914982 -4.106369972
16.61083984 -5.319211006 -4.083135128
16.48332977 -5.334187984 -4.055529118
16.36144066 -5.350248814 -4.029304028
16.23036957 -5.362558842 -4.000776768
16.17877007 -5.400618076 -3.992036104
16.07913017 -5.422238827 -3.971330881
16.02465057 -5.458676815 -3.961899042
15.96549988 -5.493247986 -3.951317072
15.84193039 -5.505146027 -3.924631119
15.83782959 -5.558234215 -3.927851915
15.83353996 -5.61135006 -3.931071997
15.82633018 -5.663506985 -3.933603048
15.83267975 -5.720633984 -3.939584017
15.84247971 -5.779185772 -3.946485996
15.87125015 -5.844915867 -3.958218098
15.88516998 -5.905449867 -3.96626997
15.91434956 -5.971938133 -3.978233099
15.91234016 -6.026938915 -3.982372999
15.92103958 -6.086154938 -3.989274979
15.9358902 -6.147933006 -3.997786999
15.9432497 -6.207034111 -4.004457951
15.95221043 -6.26695013 -4.011590004
15.97941971 -6.391096115 -4.028382778
15.98320007 -6.449559212 -4.034365177
15.99308968 -6.510674 -4.041955948
16.00904083 -6.574498177 -4.051157951
16.00768089 -6.631403923 -4.055988789
16.01778984 -6.693242073 -4.063810825
16.02139091 -6.752558231 -4.07002306
16.03731918 -6.817288876 -4.079453945
16.03243065 -6.873362064 -4.083594799
16.0389595 -6.934488773 -4.090726852
16.04704094 -6.996500015 -4.098319054
16.04421043 -7.053924084 -4.103148937
16.05451965 -7.117312908 -4.111431122
16.05570984 -7.176859856 -4.117413044
16.06999969 -7.242479801 -4.126844883
16.06896019 -7.301410198 -4.13236618
16.07480049 -7.363645077 -4.139728069
16.07245064 -7.422311783 -4.145019054
16.05578041 -7.474462032 -4.146628857
17.17045021 -5.153571129 -4.310276031
17.13875008 -5.201426983 -4.306265831
17.10783958 -5.249423027 -4.302494049
16.87354088 -5.234228134 -4.247076035
16.71459961 -5.241196156 -4.210759163
16.62710953 -5.269844055 -4.192601204
16.50073051 -5.285554886 -4.164537907
16.37348938 -5.300241947 -4.136240005
16.24168968 -5.31268692 -4.106761932
16.16349983 -5.342060089 -4.090961933
16.10279083 -5.376852036 -4.079642773
16.04937935 -5.413805008 -4.07020998
15.9793396 -5.444839954 -4.056531906
15.85688972 -5.457470894 -4.029413223
15.83547974 -5.504498959 -4.028234005
15.82769012 -5.556273937 -4.030591965
15.83347034 -5.612924099 -4.036488056
15.83813 -5.669332981 -4.042148113
15.85264969 -5.729457855 -4.050401211
15.84778023 -5.782729149 -4.053702831
15.87008953 -5.846102238 -4.064078808
15.8712101 -5.901875019 -4.069030762
15.89669991 -5.966930866 -4.080349922
15.90557957 -6.02600193 -4.087425232
15.91697025 -6.086224079 -4.095207214
15.92269993 -6.14447403 -4.101573944
15.93908978 -6.207046986 -4.110771179
15.95435047 -6.269423008 -4.119731903
15.96574974 -6.330519199 -4.12774992
15.96700954 -6.387773991 -4.133173943
15.98338032 -6.45127821 -4.142607212
15.99141979 -6.511643887 -4.149918079
15.99923038 -6.572121143 -4.157227993
16.00053978 -6.630103111 -4.16288805
16.00791931 -6.690776825 -4.170197964
16.03924942 -6.761752129 -4.183876038
16.04347038 -6.821575165 -4.190478802
16.04301071 -6.879570961 -4.195901871
16.04501915 -6.938786983 -4.202033997
16.05394936 -7.001186848 -4.210052013
16.06263924 -7.063706875 -4.21807003
16.06932068 -7.125557899 -4.225615978
16.07311058 -7.186326981 -4.232454777
16.08200073 -7.249581814 -4.240707874
16.08267975 -7.309340954 -4.24684
16.08049965 -7.367958069 -4.252264023
16.08164024 -7.428258896 -4.258631229
16.0649395 -7.480432987 -4.26028204
17.07485008 -5.18366003 -4.395769119
16.92620087 -5.195309162 -4.361269951
16.81656075 -5.21817112 -4.336905003
16.68102074 -5.232278824 -4.305784225
16.54000092 -5.243844986 -4.273215771
16.49426079 -5.28508997 -4.265495777
16.34778976 -5.293525219 -4.231481075
16.21710014 -5.306240082 -4.201567173
16.12334061 -5.330385208 -4.181302071
16.02683067 -5.353084087 -4.160314083
15.99470043 -5.396955013 -4.156212807
15.82190037 -5.392786026 -4.115200996
15.81262016 -5.443828106 -4.117131233
15.81235027 -5.498051167 -4.121472836
15.81280041 -5.552643776 -4.126057148
15.82221985 -5.610535145 -4.133052826
15.82686043 -5.666900158 -4.13884306
15.83586979 -5.72499609 -4.145839214
15.84101963 -5.781869888 -4.151869774
15.85599041 -5.842520237 -4.160554886
15.86800957 -5.902299881 -4.168516159
15.88525963 -5.96425581 -4.17792511
15.89048004 -6.021903038 -4.184196949
15.89640999 -6.079985142 -4.190711021
15.90845966 -6.140604973 -4.198913097
15.93023968 -6.20523119 -4.209768772
15.94363976 -6.266853809 -4.218453884
15.95952988 -6.32968998 -4.227861881
15.95625019 -6.385111809 -4.232204914
15.97437954 -6.449291229 -4.242337227
15.97789001 -6.507785797 -4.24861002
15.98836994 -6.569313049 -4.256812096
15.99503994 -6.629478931 -4.264049053
15.98536968 -6.683011055 -4.266943932
16.01486969 -6.753135204 -4.280454159
16.03336906 -6.818944931 -4.291069031
16.03289032 -6.876900196 -4.296617031
16.04644966 -6.941080093 -4.306025982
16.04821014 -7.000363827 -4.312297821
16.05863953 -7.063631058 -4.320981979
16.05196953 -7.119553089 -4.325084209
16.05485916 -7.179856777 -4.331839085
16.06549072 -7.243835926 -4.340764999
16.07588005 -7.307948112 -4.349690914
16.08337975 -7.370978832 -4.35789299
16.06509972 -7.422321796 -4.359098911
16.05456924 -7.477310181 -4.362476826
17.1036396 -5.069888115 -4.510279179
17.09449959 -5.124286175 -4.512009144
17.06756973 -5.173333168 -4.509043217
17.03494072 -5.220560074 -4.504593849
16.78160095 -5.255756855 -4.445519924
16.57601929 -5.247255802 -4.394851208
16.42417908 -5.254673004 -4.35851717
16.34436989 -5.284463882 -4.341463089
16.16873932 -5.282513142 -4.298703194
16.09357071 -5.312648773 -4.282884121
15.97607994 -5.328269005 -4.255694866
15.95506954 -5.375710964 -4.254458904
15.80733013 -5.379981995 -4.21911478
15.7825098 -5.425617218 -4.216889858
15.79049969 -5.482594013 -4.223564148
15.78184032 -5.53389883 -4.225788116
15.78396034 -5.589084148 -4.230978012
15.7968502 -5.648251057 -4.239134789
15.80496979 -5.705903053 -4.24605608
15.81379032 -5.763988972 -4.253223896
15.82604027 -5.823523045 -4.261380196
15.84624958 -5.886222839 -4.271760941
15.85352039 -5.944337845 -4.278682232
15.8651104 -6.004268169 -4.286839008
15.87738991 -6.06467104 -4.295241833
15.88492966 -6.123463154 -4.302410126
15.90579987 -6.187627792 -4.313285828
15.92010975 -6.249499798 -4.322431087
15.93239021 -6.31080389 -4.331081867
15.93634987 -6.369006157 -4.337508202
15.94639015 -6.429827213 -4.345664978
15.96158981 -6.492961884 -4.355303764
15.97208023 -6.554409981 -4.363708019
15.9760704 -6.613389015 -4.370380878
15.99415016 -6.678429127 -4.381010056
16.00662041 -6.741384983 -4.390154839
16.00815964 -6.799932957 -4.396334171
15.99612999 -6.852828979 -4.398806095
15.99993992 -6.91263485 -4.405725956
16.01062965 -6.975625038 -4.414625168
16.02375031 -7.039915085 -4.424263954
16.02865982 -7.100818157 -4.431678772
16.02626038 -7.158655167 -4.4371171
16.03513908 -7.221717834 -4.445767879
16.05791092 -7.291313171 -4.45837307
16.04162979 -7.3433671 -4.460103989
16.03222084 -7.398639202 -4.463810921
16.02350044 -7.454329967 -4.467765808
16.10758972 -7.553654194 -4.497920036
16.03178024 -7.578186035 -4.483089924
17.26247025 -5.121882915 -4.663406849
17.07863045 -5.238832951 -4.626254082
16.78154945 -5.204080105 -4.549418926
16.67410088 -5.226887226 -4.52439785
16.51963997 -5.23417902 -4.486485958
16.46388054 -5.272147179 -4.475617886
16.23958969 -5.25530386 -4.418498039
16.13629913 -5.331474781 -4.399035931
16.01708031 -5.346642017 -4.37072897
15.91991997 -5.368546963 -4.3484869
15.79347992 -5.37992382 -4.31815815
15.7796402 -5.429296017 -4.318915844
15.77112961 -5.480541229 -4.321190834
15.77707005 -5.536911011 -4.327508926
15.78553963 -5.59433794 -4.334586143
15.7874403 -5.649587154 -4.339893818
15.80097008 -5.70917511 -4.3484869
15.80792046 -5.766578197 -4.355310917
15.82555962 -5.828090191 -4.365169048
15.83209038 -5.885717869 -4.371993065
15.84204006 -5.944800854 -4.379827023
15.86534977 -6.009140968 -4.39145422
15.86491013 -6.064696789 -4.396509171
15.88955975 -6.130057812 -4.408639908
15.90132999 -6.190712929 -4.417233944
15.92008972 -6.254327774 -4.427848816
15.93082047 -6.371656895 -4.44175005
15.9488802 -6.435709 -4.452364922
15.95057011 -6.493364811 -4.458430767
15.97264004 -6.559545994 -4.470310211
15.98194027 -6.620738983 -4.478651047
15.98297024 -6.678692818 -4.484716892
15.98736954 -6.738218784 -4.491794109
15.9906702 -6.797455788 -4.498618126
15.99374962 -6.856777191 -4.505442142
15.99660969 -6.916180134 -4.512266159
16.00812912 -6.979533195 -4.521616936
16.00967026 -7.03873682 -4.528189182
16.01099968 -7.098017216 -4.534759998
16.00857925 -7.155790806 -4.540320873
16.01301003 -7.216797829 -4.547903061
16.01634026 -7.277499199 -4.555233002
16.01416969 -7.335869789 -4.561046124
16.01442909 -7.395514011 -4.56761694
16.00832939 -7.452370167 -4.572419167
16.19384956 -7.599276066 -4.632573128
15.99203968 -7.564520836 -4.581013203
16.53457069 -5.234173775 -4.596977234
16.45495033 -5.264565945 -4.579153061
16.33761024 -5.282333851 -4.550737858
16.24603081 -5.307833195 -4.529557228
16.11957932 -5.321311951 -4.498558998
16.04544067 -5.351486206 -4.482285023
15.92457962 -5.365526199 -4.452837944
15.84842014 -5.448376179 -4.440697193
15.78691006 -5.48144722 -4.428040028
15.79827976 -5.539762974 -4.436048031
15.78940964 -5.591107845 -4.438372135
15.80037975 -5.649604797 -4.446380138
15.81931973 -5.711174011 -4.4567132
15.8207798 -5.766627789 -4.462137222
15.82567978 -5.823478222 -4.468595028
15.83401012 -5.881758213 -4.47608614
15.84482956 -5.941162109 -4.484352112
15.85453987 -6.0003438 -4.492360115
15.86583996 -6.060331821 -4.500884056
15.88232994 -6.122529984 -4.510958195
15.90217972 -6.18628788 -4.522066116
15.92000008 -6.249517918 -4.532657146
15.92949009 -6.309714794 -4.540923119
15.93696976 -6.369310856 -4.548672199
15.95678043 -6.43407011 -4.56003809
15.96560001 -6.494641781 -4.568304062
15.97509003 -6.555696011 -4.576828003
15.97900009 -6.614652157 -4.583803177
15.98270988 -6.673694134 -4.59077692
15.99777031 -6.737695217 -4.601109982
15.9948101 -6.794297218 -4.606276035
16.00407982 -6.856269836 -4.615057945
16.01400948 -6.918746948 -4.624100208
16.01927948 -6.979421139 -4.631848812
16.01902008 -7.037859917 -4.638048172
16.02120018 -7.097537041 -4.645022869
16.01786995 -7.154929161 -4.650446892
16.02139091 -7.21554184 -4.657938004
16.01852989 -7.273447037 -4.663620949
16.02161026 -7.334218025 -4.671113014
16.01044083 -7.388598919 -4.674469948
16.00609016 -7.446239948 -4.679894924
16.30680084 -7.647068024 -4.77547121
16.49456978 -5.223114014 -4.692739964
16.40497017 -5.250178814 -4.671629906
16.34106064 -5.285052776 -4.657908916
16.22117043 -5.301310062 -4.628090858
16.15353012 -5.334116936 -4.613314152
16.03277969 -5.34885788 -4.58323288
15.94591999 -5.374304771 -4.562913895
15.83895016 -5.392432213 -4.536790848
15.78310966 -5.42751503 -4.525444984
15.77276993 -5.478126049 -4.527291775
15.76681042 -5.530321121 -4.530457973
15.76885986 -5.585428238 -4.535998821
15.78162003 -5.644497871 -4.544706821
15.78962994 -5.702060223 -4.55209589
15.79652977 -5.759394169 -4.559219837
15.79961014 -5.815492153 -4.565289021
15.80972004 -5.874350071 -4.573470116
15.82143021 -5.934000969 -4.582177162
15.82931042 -5.992413998 -4.589828968
15.85680962 -6.058504105 -4.60328722
15.88494015 -6.125165939 -4.617009163
15.89305019 -6.184362888 -4.624925137
15.90272999 -6.244371891 -4.633368015
15.91308975 -6.304853916 -4.642076015
15.92502022 -6.366175175 -4.651311874
15.9295702 -6.424742222 -4.658436775
15.94641018 -6.488484859 -4.66925478
15.95499039 -6.549096107 -4.677700043
15.9695797 -6.612402916 -4.687990189
15.97591972 -6.672515869 -4.695907116
15.97758961 -6.730858803 -4.702503204
15.98793983 -6.793045044 -4.711739063
15.99627972 -6.854598999 -4.720447063
16.00704956 -6.917415142 -4.729946136
16.01227951 -6.978050232 -4.737863064
16.01375961 -7.037230015 -4.744722843
16.00972939 -7.094141006 -4.75
16.01783943 -7.156599998 -4.758972168
16.00900078 -7.211649895 -4.762929916
16.00699997 -7.269904137 -4.769000053
16.00215912 -7.327007771 -4.77427721
15.9988699 -7.384960175 -4.780082226
15.99363041 -7.442145824 -4.785358906
16.30868912 -7.649675846 -4.887477875
16.58264923 -5.246172905 -4.825360775
16.45824051 -5.262406826 -4.793569088
16.30180931 -5.267561913 -4.752346992
16.20227051 -5.290344238 -4.727828979
16.0807991 -5.30532217 -4.696846008
16.01601982 -5.338489056 -4.682566166
15.87726974 -5.346409798 -4.646462917
15.7969799 -5.373383045 -4.627604008
15.76766968 -5.417439938 -4.623830795
15.75187969 -5.466104984 -4.624101162
15.74775982 -5.518865108 -4.627872944
15.75253963 -5.574864864 -4.634338856
15.75893974 -5.631595135 -4.64134407
15.76605034 -5.688743114 -4.648618221
15.77295017 -5.745986938 -4.655892849
15.78145981 -5.803991795 -4.663705826
15.78796005 -5.861433029 -4.670979977
15.79965973 -5.920997143 -4.679872036
15.81293964 -5.981369019 -4.689301014
15.83139992 -6.043939114 -4.7003479
15.86040974 -6.110834122 -4.714626789
15.8712101 -6.170982838 -4.723517895
15.88267994 -6.23160696 -4.73267889
15.89214039 -6.291650772 -4.741300106
15.89511967 -6.349309921 -4.748035908
15.90682983 -6.410646915 -4.757465839
15.91919994 -6.472477913 -4.767165184
15.92422009 -6.531520844 -4.774709225
15.9405899 -6.595442772 -4.785755157
15.94871044 -6.656188011 -4.79437685
15.95217991 -6.715177059 -4.801651001
15.96253014 -6.777259827 -4.811080933
15.9717598 -6.839090824 -4.820240974
15.97723007 -6.899515152 -4.828323841
15.98071003 -6.959268093 -4.835867882
15.98573017 -7.019880772 -4.843951225
15.98876953 -7.079810143 -4.851494789
15.99248028 -7.140216827 -4.859307766
15.99157047 -7.198737144 -4.865774155
15.98783016 -7.25612402 -4.871431828
15.99438953 -7.318364143 -4.880322933
15.97972965 -7.371029854 -4.882748127
15.97014046 -7.426112175 -4.886788845
16.18008995 -7.584218979 -4.958724976
16.51309013 -5.232104778 -4.913265228
16.37610054 -5.244033813 -4.876968861
16.26022911 -5.261981964 -4.846998215
16.15628052 -5.283154011 -4.820600986
16.10438919 -5.320930958 -4.809877872
15.94845963 -5.323732853 -4.767807961
15.87555981 -5.353588104 -4.750760078
15.76805973 -5.371263981 -4.723262787
15.75695992 -5.4214921 -4.72491312
15.75205994 -5.473910809 -4.728487015
15.74880028 -5.526988029 -4.732612133
15.74627018 -5.580417156 -4.737010956
15.75351048 -5.63744688 -4.744435787
15.75512981 -5.692613125 -4.750209808
15.76830006 -5.752126217 -4.759559155
15.77223015 -5.808450222 -4.766158104
15.7813797 -5.86686182 -4.77440691
15.7849102 -5.923358917 -4.781005859
15.7990303 -5.984018803 -4.790904999
15.85783005 -6.061987877 -4.81455183
15.84274006 -6.11199522 -4.815651894
15.8481102 -6.169989109 -4.823075771
15.87205982 -6.235456944 -4.836275101
15.88527012 -6.353438854 -4.852221966
15.89066982 -6.412219048 -4.859920979
15.89764023 -6.471816063 -4.868171215
15.91327953 -6.535170078 -4.879168987
15.9269104 -6.597943783 -4.88961792
15.92788982 -6.655673027 -4.896216869
15.93486023 -6.716084003 -4.90474081
15.94779968 -6.779232979 -4.91519022
15.94814014 -6.837222099 -4.921789169
15.95444012 -6.897945881 -4.93031311
15.96669006 -6.961463928 -4.940762043
15.97078991 -7.02163887 -4.948736191
15.97025967 -7.079956055 -4.95533514
15.97128963 -7.139120102 -4.962483883
15.97647953 -7.200333118 -4.971007824
15.9779501 -7.260053158 -4.978432178
15.97657967 -7.318648815 -4.985031128
15.98460007 -7.38173914 -4.994655132
15.99849033 -7.447787762 -5.006204128
16.0495491 -7.531555176 -5.029575825
16.49805069 -5.219449043 -5.019242764
16.40608025 -5.245779037 -4.995947838
16.34515953 -5.281628132 -4.982194901
16.15187073 -5.273956776 -4.927745819
16.09369087 -5.309652805 -4.914834976
15.99536991 -5.331688881 -4.889575005
15.90161991 -5.35470295 -4.865717888
15.78244019 -5.368537903 -4.834002972
15.77859974 -5.421298981 -4.837933064
15.76099014 -5.469367027 -4.837652206
15.75319004 -5.520868778 -4.840457916
15.74612999 -5.572696209 -4.843545914
15.75516987 -5.630343914 -4.851685047
15.75407982 -5.684516907 -4.856737137
15.77083015 -5.745306969 -4.86740303
15.77834988 -5.802939892 -4.87526083
15.78837013 -5.861674786 -4.883962154
15.79008961 -5.917494774 -4.890137196
15.80058002 -5.976776123 -4.899117947
15.81713963 -6.038574219 -4.91006422
15.84064007 -6.103289127 -4.923254967
15.85851955 -6.166119099 -4.934762001
15.86275959 -6.223856926 -4.942059994
15.87125015 -6.283445835 -4.950759888
15.8893404 -6.347062111 -4.96254921
15.88848019 -6.403314114 -4.968441963
15.89455032 -6.462512016 -4.97658205
15.91549969 -6.527998924 -4.98949194
15.92555046 -6.589272022 -4.999034882
15.93360043 -6.649929047 -5.008017063
15.93612957 -6.708463192 -5.015314102
15.94816017 -6.771201134 -5.025699139
15.95995998 -6.834074974 -5.036083221
15.96446991 -6.894042015 -5.044221878
15.96172047 -6.951035023 -5.050117016
15.97723007 -7.016180038 -5.061903954
15.97933006 -7.075655937 -5.06948185
15.98295975 -7.135993004 -5.077621937
15.9942503 -7.199965954 -5.088286877
16.01054001 -7.26645422 -5.100636005
16.00999069 -7.3255229 -5.107653141
16.02491951 -7.391891956 -5.119721889
16.01000023 -7.444664001 -5.122248173
16.03054047 -7.514113903 -5.136281013
15.88448048 -7.564877033 -5.104003906
17.23883057 -5.057356834 -5.318236828
17.13129044 -5.140184879 -5.294510841
16.52787971 -5.236833096 -5.131000996
16.40769958 -5.254206181 -5.098413944
16.30124092 -5.275316238 -5.070115089
16.1902504 -5.294332981 -5.040384769
16.06838036 -5.309113026 -5.00722599
16.01565933 -5.346251011 -4.995791912
15.91746044 -5.367806911 -4.970065117
15.76484966 -5.370275021 -4.927186012
15.75282955 -5.420175076 -4.928616047
15.74065018 -5.470050812 -4.930045128
15.7364502 -5.522758007 -4.934047222
15.74382019 -5.579651833 -4.941764832
15.74287033 -5.633738041 -4.946910858
15.75255013 -5.691778183 -4.955485821
15.76473045 -5.750914097 -4.964920044
15.77128983 -5.808191776 -4.97263813
15.78304005 -5.867568016 -4.982070923
15.78380013 -5.923030853 -4.988073826
15.79244041 -5.981607914 -4.996650219
15.81161022 -6.044398785 -5.008656025
15.8269701 -6.105985165 -5.019517899
15.83852005 -6.166330814 -5.029236794
15.84895992 -6.226455212 -5.038671017
15.86898041 -6.290585041 -5.051248074
15.88786983 -6.354539871 -5.063539982
15.89229012 -6.412933826 -5.071258068
15.8973999 -6.471776009 -5.07926178
15.8969698 -6.528524876 -5.085550785
15.90874004 -6.590466976 -5.095840931
15.92735004 -6.655497074 -5.108418941
15.9412899 -6.718842983 -5.119566917
15.93295002 -6.772965908 -5.123569012
15.95084953 -6.83842802 -5.136147022
15.95442963 -6.897977829 -5.144151211
15.93406963 -6.947276115 -5.144436836
15.97583961 -7.023892879 -5.165019035
15.97786999 -7.083357811 -5.172737122
15.98668003 -7.146028996 -5.182742119
15.99351978 -7.208033085 -5.192174911
16.00535011 -7.272524834 -5.203322887
16.00997925 -7.333963871 -5.212184906
16.00218964 -7.389876842 -5.217043877
16.00550079 -7.451066971 -5.225619793
16.02680969 -7.520895004 -5.240199089
17.60421944 -5.101006031 -5.538086891
17.37274933 -5.091745853 -5.469654083
17.27725029 -5.121362209 -5.444320202
17.16341019 -5.144945145 -5.413160801
17.05415916 -5.169266224 -5.383458138
16.87907028 -5.172779083 -5.332788944
16.79733086 -5.2041502 -5.311821938
16.64343071 -5.212475777 -5.267849922
16.51518059 -5.227993011 -5.232031822
16.4462204 -5.261724949 -5.215143204
16.22610092 -5.246218204 -5.149912834
16.15537071 -5.278143883 -5.132441044
16.02281952 -5.289289951 -5.09516716
16.01197052 -5.340239048 -5.096913815
15.93838978 -5.370090008 -5.078567982
15.74615002 -5.359154224 -5.022075176
15.74954033 -5.414280891 -5.028481007
15.72562981 -5.460062981 -5.026152134
15.71963024 -5.512083054 -5.02964592
15.72428989 -5.567948818 -5.036634922
15.72424984 -5.622284889 -5.04216814
15.74022007 -5.68252182 -5.05294323
15.75236988 -5.741599083 -5.062551975
15.75891972 -5.798820972 -5.07041502
15.76616955 -5.856470108 -5.078567982
15.78036976 -5.91690588 -5.0890522
15.78003979 -5.972064972 -5.094875813
15.79292011 -6.032400131 -5.105068207
15.81093979 -6.094933987 -5.117006779
15.82872009 -6.157635212 -5.128946781
15.7954998 -6.200573921 -5.124287128
15.85023022 -6.278251171 -5.14845705
15.86198044 -6.339276791 -5.158648968
15.87174034 -6.399719238 -5.168259144
15.88216019 -6.460640907 -5.178160191
15.8861599 -6.519144058 -5.186021805
15.89789963 -6.581026077 -5.196506023
15.90235043 -6.640091896 -5.204658985
15.91804981 -6.70407486 -5.216598988
15.92383003 -6.764101982 -5.225335121
15.93729019 -6.827618122 -5.236691952
15.94262028 -6.887865067 -5.245428085
15.95034981 -6.949356079 -5.255037785
15.95697975 -7.01057291 -5.264356136
15.95726013 -7.069183826 -5.271636009
15.96782017 -7.132545948 -5.282411098
15.97638988 -7.195251942 -5.292603016
15.97601986 -7.254123211 -5.299882889
15.98587036 -7.317838192 -5.310657978
15.97984982 -7.374464989 -5.316189766
15.98316956 -7.435563087 -5.3249259
15.98453045 -7.495937824 -5.333079815
16.07043076 -7.596463203 -5.369771004
16.00646019 -7.626388073 -5.356084824
17.76903915 -5.091379166 -5.705439091
17.6405201 -5.113169193 -5.668922901
17.40941048 -5.104125977 -5.599156857
17.26915932 -5.120592117 -5.558783054
17.17104912 -5.148861885 -5.532063007
17.03088951 -5.163833141 -5.491689205
16.85062981 -5.165676117 -5.438251019
16.77724075 -5.199539185 -5.419548035
16.68194008 -5.226148129 -5.39372015
16.54018974 -5.237518787 -5.352750778
16.4203701 -5.255054951 -5.318906784
16.29513931 -5.270143032 -5.283281803
16.15273094 -5.278874874 -5.242016792
16.04759979 -5.299060822 -5.21292305
15.94340038 -5.318953991 -5.1841259
15.87541962 -5.350458145 -5.167203903
15.76311016 -5.366514206 -5.135735989
15.74205971 -5.413296223 -5.134251118
15.72717953 -5.462193012 -5.13484478
15.72025967 -5.513895035 -5.138111115
15.71677971 -5.56688118 -5.14256382
15.72389984 -5.623755932 -5.150578976
15.72364044 -5.678133011 -5.156219959
15.73484993 -5.736813068 -5.165719986
15.76288033 -5.801883221 -5.180860996
15.76558971 -5.85786581 -5.187688828
15.77169037 -5.915260792 -5.195703983
15.78114986 -5.974101067 -5.20490694
15.78682995 -6.031692028 -5.21292305
15.80300045 -6.093495846 -5.224501133
15.8153801 -6.154070854 -5.234891891
15.82841969 -6.215127945 -5.245578766
15.84673977 -6.33481884 -5.264578819
15.85291004 -6.393764973 -5.273189068
15.86240959 -6.454247952 -5.282986164
15.87432957 -6.515936852 -5.293673038
15.88162041 -6.575933933 -5.302875996
15.90542984 -6.643029213 -5.317719936
15.90960979 -6.702176094 -5.326033115
15.93115997 -6.768878937 -5.340281963
15.93752956 -6.829382896 -5.349484921
15.93929005 -6.888095856 -5.35720396
15.94433975 -6.948410988 -5.366109848
15.94130993 -7.005362988 -5.372344971
15.94592953 -7.065843105 -5.381250858
15.95121002 -7.126807213 -5.390453815
15.95104027 -7.185516834 -5.397875786
15.9802103 -7.25771904 -5.415391922
15.97523022 -7.314662933 -5.421329021
15.97266006 -7.372845173 -5.428156853
15.98112965 -7.436316967 -5.438845158
15.97986031 -7.49545002 -5.446267128
16.14324951 -7.632607937 -5.510392189
17.60548973 -5.097998142 -5.769511223
17.40040016 -5.096526146 -5.706954002
17.31796074 -5.130123138 -5.684894085
17.16426086 -5.141925812 -5.639260769
17.01794052 -5.155045033 -5.596045017
16.86897087 -5.166478157 -5.551924229
16.76652908 -5.191423893 -5.523214817
16.66773987 -5.216928959 -5.495714188
16.51715088 -5.22548914 -5.450987816
16.40389061 -5.245077133 -5.418652058
16.26254082 -5.25493288 -5.37694788
16.21463013 -5.294445992 -5.366371155
16.11593056 -5.316990852 -5.338871002
15.97021961 -5.323307037 -5.295654774
15.77571964 -5.366251945 -5.241560936
15.76459026 -5.416483879 -5.243373871
15.75150013 -5.46607399 -5.24458313
15.73735046 -5.515318871 -5.245490074
15.73383999 -5.56834507 -5.250022888
15.73822021 -5.624288082 -5.257276058
15.74421024 -5.680956841 -5.265132904
15.74730015 -5.736736774 -5.272082806
15.76630974 -5.798511982 -5.284473896
15.76811028 -5.854153156 -5.29112196
15.8268404 -5.931268215 -5.317111969
15.79251957 -5.973725796 -5.311672211
15.7981596 -6.031328201 -5.319831848
15.80449009 -6.089363098 -5.328292847
15.81949997 -6.150948048 -5.339776993
15.82540035 -6.209200859 -5.348238945
15.83463955 -6.268950939 -5.357909203
15.84720039 -6.33023119 -5.368789196
15.85422993 -6.389509201 -5.377854824
15.8681097 -6.451760769 -5.389338017
15.8782196 -6.512712002 -5.399612904
15.89603996 -6.577064991 -5.412608147
15.89953995 -6.635715008 -5.420767784
15.91777039 -6.700736046 -5.434063911
15.91732025 -6.758107185 -5.441014767
15.93945026 -6.825294018 -5.455822945
15.94118023 -6.883987904 -5.463681221
15.94620991 -6.944280148 -5.472746849
15.94927025 -7.003901005 -5.481207848
15.96170044 -7.067851067 -5.492993832
15.95821953 -7.124948978 -5.499341011
15.97887993 -7.193046093 -5.514149189
15.99493027 -7.259367943 -5.527444839
16.00032043 -7.321096897 -5.537116051
16.00894928 -7.384523869 -5.54799509
16.00090981 -7.440435886 -5.553133011
16.04706001 -7.521855831 -5.577309132
16.20145035 -7.65493679 -5.639563084
19.98518944 8.209718704 -6.937187195
20.24881935 7.459344864 -6.928581238
17.49684906 -5.013344765 -5.837464809
17.62579918 -5.108849049 -5.886026859
17.35526085 -5.08822298 -5.800273895
17.28392029 -5.124945164 -5.781526089
17.11771011 -5.132860184 -5.730812073
17.11828041 -5.190320969 -5.736343861
16.91120911 -5.18425703 -5.671799183
16.78614998 -5.202319145 -5.634916782
16.59122086 -5.197762012 -5.574368
16.52256966 -5.231979847 -5.556540012
16.38409042 -5.243497849 -5.515048027
16.29821014 -5.271194935 -5.491381168
16.19783974 -5.293686867 -5.462797165
16.10110092 -5.31680584 -5.435441971
16.04859924 -5.354135036 -5.423148155
15.9022398 -5.359590054 -5.378889084
15.80014992 -5.37922287 -5.349689007
15.7637701 -5.420865059 -5.342927933
15.74796963 -5.469513893 -5.343235016
15.73828983 -5.520321846 -5.345694065
15.73114967 -5.572073936 -5.349074841
15.73906994 -5.629281998 -5.357680798
15.74320984 -5.685297966 -5.365056992
15.74894047 -5.742043972 -5.373048782
15.75088978 -5.797564983 -5.37981081
15.76158047 -5.856463909 -5.389646053
15.77383041 -5.916152 -5.40009594
15.78052998 -5.973949909 -5.408701897
15.79234982 -6.033881187 -5.419151783
15.80039978 -6.092572212 -5.42837286
15.80558014 -6.150333881 -5.436672211
15.81674957 -6.210618973 -5.447122097
15.83300972 -6.273132801 -5.459415913
15.84107971 -6.33262682 -5.468944073
15.85159016 -6.393297195 -5.479393959
15.86627007 -6.45588398 -5.491381168
15.87456036 -6.51609087 -5.501215935
15.88000011 -6.575318813 -5.510129929
15.89048004 -6.63684082 -5.520886898
15.89371967 -6.695534229 -5.529185772
15.90200996 -6.756542206 -5.539329052
15.9153204 -6.819911957 -5.551315784
15.92838955 -6.883427143 -5.563302994
15.93511009 -6.94442606 -5.573138237
15.94509983 -7.007061005 -5.584202766
15.95571995 -7.07020998 -5.595574856
15.97564983 -7.137756824 -5.610328197
15.98925018 -7.202757835 -5.62293005
15.99394035 -7.263976097 -5.63245821
16.0001297 -7.32608223 -5.642601013
16.00263977 -7.3866992 -5.651514053
15.99888039 -7.444591045 -5.658276081
16.02680016 -7.517477989 -5.676410198
16.23292923 -7.736018181 -5.766773224
17.65872955 -5.113467216 -6.017262936
17.32031059 -5.073092937 -5.906462193
17.29647064 -5.12377882 -5.903645039
17.13965034 -5.134563923 -5.855130196
17.04746056 -5.163990021 -5.828837872
16.93165016 -5.185666084 -5.794407845
16.78502083 -5.197126865 -5.749337196
16.66657066 -5.216534138 -5.7139678
16.47392082 -5.21176815 -5.652933121
16.39723969 -5.242899895 -5.631961823
16.26268959 -5.254919052 -5.590960026
16.13545036 -5.268518925 -5.552461147
16.05968094 -5.298355103 -5.531803131
15.99470043 -5.331378937 -5.514901161
15.94585991 -5.369511127 -5.503633022
15.80253983 -5.375273228 -5.459499836
15.75452995 -5.412926197 -5.448544979
15.72439003 -5.456562996 -5.443850994
15.72640038 -5.511376858 -5.450424194
15.71568012 -5.561818123 -5.452613831
15.72091007 -5.617998123 -5.460439205
15.72861004 -5.67523098 -5.469202995
15.73433018 -5.731912136 -5.477341175
15.73983955 -5.788681984 -5.485478878
15.74872017 -5.846862793 -5.494869232
15.75739002 -5.905151844 -5.504259109
15.76939964 -5.964893818 -5.514901161
15.77764034 -6.023409843 -5.524291039
15.78302002 -6.081007957 -5.532742023
15.79969025 -6.14316988 -5.54526186
15.81171989 -6.203757763 -5.556217194
15.82705021 -6.265874863 -5.568424225
15.83244038 -6.324268818 -5.577188015
15.84115982 -6.384174824 -5.587203979
15.84525013 -6.442405224 -5.595654011
15.85968018 -6.505044937 -5.607861996
15.85719967 -6.56093502 -5.61412096
15.88169003 -6.628211975 -5.630084991
15.88578987 -6.687223911 -5.638847828
15.90104008 -6.751150131 -5.651680946
15.90557957 -6.810746193 -5.660758018
15.90814972 -6.869678974 -5.669209003
15.91921043 -6.932485104 -5.680789948
15.93439007 -6.99733305 -5.693935871
15.9527998 -7.063877106 -5.708333969
15.95880032 -7.125178814 -5.718349934
15.96891022 -7.188532829 -5.729930878
15.97531986 -7.250445843 -5.740260124
15.98495007 -7.314045906 -5.751841068
15.98486042 -7.373397827 -5.759978771
15.98025036 -7.43081522 -5.766551018
16.00123024 -7.500368118 -5.782515049
19.95578957 8.12582016 -7.193056107
19.96479988 8.058172226 -7.187326908
19.98414993 7.994771004 -7.185417175
20.00418091 7.931674957 -7.183825016
19.97989082 7.851198196 -7.166318893
19.98797989 7.783671856 -7.160590172
20.00381088 7.719242096 -7.157724857
20.00880051 7.650723934 -7.151041031
20.01711082 7.583592892 -7.145629883
20.07481956 7.464922905 -7.149766922
20.09851074 7.403625965 -7.150085926
20.12023926 7.34160614 -7.149766922
20.14444923 7.280488014 -7.150403976
20.16669083 7.218650818 -7.150403976
20.1932106 7.158329964 -7.151996136
17.44701004 -5.115149021 -6.063099861
17.18674088 -5.096150875 -5.977478027
17.09656906 -5.126526833 -5.951376915
17.01543999 -5.159148216 -5.928460121
16.95240021 -5.196877003 -5.91190815
16.86212921 -5.225849152 -5.885807991
16.77997971 -5.256865978 -5.862572193
16.58031082 -5.25022316 -5.797957897
16.4323101 -5.258875847 -5.751485825
16.34573936 -5.286509037 -5.726658821
16.17535973 -5.286272049 -5.672229767
16.09605026 -5.315063 -5.649950027
16.01581955 -5.343118191 -5.627349854
15.89245033 -5.35619688 -5.589472771
15.76646042 -5.367652893 -5.55064106
15.74454021 -5.414148808 -5.54873085
15.72517014 -5.461493969 -5.547776222
15.70565987 -5.508770943 -5.546821117
15.71012974 -5.564527035 -5.554460049
15.71173 -5.619402885 -5.561143875
15.72115993 -5.677238941 -5.570693016
15.72772026 -5.734212875 -5.579288006
15.7456398 -5.795536995 -5.592019081
15.75 -5.852070808 -5.599977016
15.7674799 -5.91368103 -5.612709045
15.76432991 -5.967732906 -5.618120193
15.78048038 -6.029265881 -5.630533218
15.78932953 -6.088223934 -5.640399933
15.80502987 -6.150044918 -5.652813911
15.83403015 -6.329737186 -5.684007168
15.82948017 -6.38431406 -5.689417839
15.83528042 -6.443210125 -5.69864893
15.85227013 -6.506881237 -5.712018013
15.86375999 -6.568542004 -5.723475933
15.87415028 -6.629968166 -5.734617233
15.88519001 -6.691886902 -5.746075153
15.89424992 -6.753195763 -5.756896973
15.90482998 -6.815370083 -5.768355846
15.91516972 -6.877672195 -5.779815197
15.93048954 -6.942374229 -5.79318285
15.92994976 -7.000369072 -5.800821781
15.94046021 -7.063418865 -5.812600136
15.95246983 -7.127373219 -5.825013161
15.95040989 -7.185235977 -5.832334042
15.96885967 -7.252563 -5.847293854
15.96205044 -7.308625221 -5.853023052
15.96450996 -7.369083881 -5.862254143
15.9616003 -7.42722702 -5.869575024
16.03142929 -7.519640923 -5.903951168
16.15397072 -7.637678146 -5.958062172
19.89138985 8.240387917 -7.309049129
19.97340965 8.059796333 -7.311634064
19.97256088 7.988287926 -7.302264214
19.96793938 7.915466785 -7.291602135
19.97187042 7.846210003 -7.284171104
19.96850967 7.774254799 -7.27415514
19.98785973 7.711253166 -7.272540092
20.00699997 7.648204803 -7.270924091
20.02240944 7.583772182 -7.268015862
20.13104057 7.273821831 -7.266077995
17.55047035 -5.088700771 -6.196968079
17.45849037 -5.120151997 -6.169826984
17.35469055 -5.147586823 -6.138487816
17.09226036 -5.12685585 -6.050607204
16.99855995 -5.155650139 -6.02282095
16.86051941 -5.170321941 -5.979204178
16.7921505 -5.205772877 -5.960464001
16.70385933 -5.234628201 -5.934617043
16.50908089 -5.229271889 -5.870645046
16.40644073 -5.252199173 -5.83962822
16.27589035 -5.265515804 -5.798594952
16.23176956 -5.306309223 -5.788578987
16.09140968 -5.315124989 -5.743992805
15.94575977 -5.321331978 -5.697467804
15.74755001 -5.416770935 -5.643835068
15.7487402 -5.471270084 -5.650296211
15.73097992 -5.519247055 -5.649972916
15.73091984 -5.573486805 -5.656112194
15.7271204 -5.626503944 -5.660957813
15.74983978 -5.689195156 -5.675498009
15.74742031 -5.743000031 -5.680990219
15.75193024 -5.799458981 -5.689066887
15.76511002 -5.859296799 -5.700376034
15.77985001 -5.919935226 -5.712329865
15.78816032 -5.978372097 -5.72202301
15.79627037 -6.036915779 -5.731715202
15.80768967 -6.09692812 -5.742701054
15.81713009 -6.156380177 -5.753038883
15.82106972 -6.213871956 -5.7614398
15.82833004 -6.272840977 -5.771131992
15.83889008 -6.333318233 -5.782117844
15.83693981 -6.388961792 -5.788578987
15.84881973 -6.450360775 -5.800210953
15.85521984 -6.509737015 -5.809904099
15.85789967 -6.567763805 -5.818304062
15.90054989 -6.642649174 -5.841567039
15.88183975 -6.692133904 -5.842213154
15.91349983 -6.763035774 -5.861598015
15.94312 -6.833447933 -5.880338192
15.91079044 -6.877448082 -5.87613678
15.94686985 -6.95118618 -5.897460938
15.95925999 -7.014928818 -5.910061836
15.95409966 -7.071144104 -5.916201115
16.05415916 -7.174498081 -5.961757183
15.95786953 -7.190283775 -5.933970928
15.95641994 -7.248601913 -5.941724777
16.02788925 -7.340472221 -5.976942062
16.05685043 -7.41341114 -5.996326923
16.08636093 -7.486996174 -6.016036034
16.12294006 -7.746128082 -6.065145969
16.09910011 -7.795556068 -6.065145969
17.4509201 -5.05487299 -6.274538994
17.38003922 -5.092192173 -6.254508018
17.27466965 -5.118927002 -6.222000122
17.19916916 -5.154009819 -6.20032692
17.02960014 -5.160196781 -6.14450407
16.92066002 -5.183926105 -6.110682011
16.77474976 -5.195580959 -6.063395977
16.64966011 -5.212879181 -6.023663044
16.51021957 -5.224899769 -5.978675842
16.33937073 -5.226047039 -5.922195911
16.2297802 -5.245944023 -5.888044834
16.16871071 -5.281051159 -5.871626854
16.09861946 -5.31287384 -5.851923943
16.02220917 -5.342226028 -5.829923153
15.96813965 -5.378695011 -5.816132069
15.76377964 -5.363778114 -5.747173786
15.74993038 -5.41303587 -5.748158932
15.74306011 -5.464736938 -5.751770973
15.73869991 -5.517384052 -5.75636816
15.72616005 -5.567220211 -5.758009911
15.73213005 -5.62370491 -5.766548157
15.74145031 -5.681561947 -5.776399136
15.74347019 -5.736942768 -5.783623219
15.74442005 -5.79206419 -5.790519238
15.75491047 -5.850860119 -5.801026821
15.7634201 -5.909111977 -5.8108778
15.77702045 -5.969477177 -5.82269907
15.79568958 -6.032001972 -5.836491108
15.79738045 -6.088245869 -5.844042778
15.80416012 -6.146609783 -5.85356617
15.80720997 -6.203691959 -5.861774921
15.81620979 -6.263286114 -5.872282982
15.83024979 -6.325095177 -5.884760857
15.83003998 -6.381400108 -5.891985893
15.84976006 -6.445946217 -5.906763077
15.8893404 -6.518917084 -5.92909193
15.86489964 -6.5658288 -5.92745018
15.97369003 -6.668314934 -5.976048946
16.02976036 -6.749540806 -6.004946232
16.01506996 -6.801271915 -6.00724411
16.01934052 -6.977799892 -6.032856941
16.00909996 -7.031850815 -6.037126064
16.03149986 -7.100438118 -6.053873062
16.01481056 -7.151898861 -6.055842876
16.04792023 -7.225813866 -6.076858997
16.06954002 -7.294923782 -6.093605995
16.07027054 -7.354802132 -6.102471828
16.07508087 -7.416730881 -6.112979889
16.22097015 -7.544475079 -6.177670002
16.28583908 -7.635499001 -6.211492062
16.30332947 -7.704795837 -6.22725296
16.27705956 -7.753559113 -6.226268768
16.25830078 -7.805912971 -6.228239059
17.36170959 -5.088510036 -6.364964962
17.26016045 -5.116294861 -6.333252907
17.10532951 -5.127532005 -6.281847
16.63542938 -5.209969044 -6.131299973
16.52050972 -5.229681015 -6.094582081
16.39306068 -5.244715214 -6.053188801
16.25849915 -5.256696224 -6.00912714
16.16165924 -5.280200005 -5.979084015
16.04424095 -5.296360016 -5.941363811
15.95816994 -5.322290897 -5.915327072
15.96767044 -5.379955769 -5.92500782
15.79848957 -5.376972198 -5.867927074
15.73289967 -5.408557892 -5.849566936
15.75629997 -5.470716 -5.864589214
15.73766041 -5.518405914 -5.863921165
15.73398972 -5.571382999 -5.868927956
15.73367977 -5.625658989 -5.87526989
15.73674011 -5.681266785 -5.882947922
15.7351799 -5.735332012 -5.888957024
15.75288963 -5.796603203 -5.902308941
15.74122047 -5.847202778 -5.904644966
15.74263 -5.902750015 -5.911989212
15.75706005 -5.963367939 -5.924339771
15.88134003 -6.066182137 -5.97841692
15.7703104 -6.079268932 -5.943367004
15.77266979 -6.135827065 -5.951377869
15.86345005 -6.227251053 -5.993103981
15.98886967 -6.333178043 -6.048182011
15.98423958 -6.388148785 -6.05385685
16.0222702 -6.460428238 -6.075888157
16.02070999 -6.517013073 -6.08289814
16.0259304 -6.576512814 -6.092578888
15.95081043 -6.602931023 -6.071548939
15.93568993 -6.654016018 -6.073552132
15.99077988 -6.734712124 -6.102592945
15.98913002 -6.791848183 -6.109937191
15.98349953 -6.905531883 -6.123957157
16.00717926 -6.974118233 -6.141314983
16.01073074 -7.034192085 -6.150994778
15.9976902 -7.087098122 -6.154333115
15.99652958 -7.145372868 -6.162343979
16.0132103 -7.211836815 -6.17736578
16.08778954 -7.364501953 -6.223764896
16.07538986 -7.418564796 -6.227769852
16.18502998 -7.529487133 -6.279510021
16.18907928 -7.713409901 -6.308551788
16.1592598 -7.821225166 -6.315561771
17.52404976 -5.079404831 -6.530453205
17.36483002 -5.091054916 -6.476568222
17.25712967 -5.117022991 -6.441999912
17.11067963 -5.130757809 -6.392858982
17.04353905 -5.167666912 -6.373541832
16.39327049 -5.246384144 -6.158339024
16.28580093 -5.267120838 -6.123771191
16.16135025 -5.281693935 -6.082764149
16.04948044 -5.299685001 -6.04650116
15.94925976 -5.320909023 -6.014644146
15.8713398 -5.349081993 -5.991260052
15.80675983 -5.381373882 -5.972959995
15.77237988 -5.423724174 -5.966180801
15.73701 -5.465604782 -5.959064007
15.73703003 -5.519776821 -5.965504169
15.72356987 -5.569287777 -5.966858864
15.71527004 -5.620669842 -5.970248222
15.7244997 -5.678443909 -5.980414867
15.7149601 -5.729559898 -5.983465195
15.72113991 -5.786520958 -5.992616177
15.74565029 -5.850454807 -6.008882999
15.77519035 -5.916575909 -6.02718401
15.84671974 -5.998922825 -6.061751842
15.87042046 -6.063631058 -6.078019142
16.10383987 -6.266324997 -6.182740211
15.9934597 -6.27993679 -6.147493839
15.97937012 -6.331054211 -6.149528027
15.99831009 -6.395414829 -6.164439201
16.03096962 -6.465582848 -6.184772968
16.06159973 -6.535302162 -6.204430103
16.06148911 -6.592764854 -6.212224007
15.95166016 -6.604936123 -6.177318096
15.95823002 -6.665083885 -6.187822819
16.11717987 -6.789622784 -6.257976055
16.04644966 -7.051568031 -6.27187109
15.98569965 -7.142219067 -6.26509285
15.99717045 -7.206298828 -6.278309822
17.50197029 -5.013179779 -6.627612114
17.46846962 -5.061625004 -6.620731831
17.31229019 -5.073998928 -6.567070007
17.2417202 -5.110811234 -6.546086788
17.17020035 -5.146968842 -6.524759769
17.06447029 -5.172387123 -6.490361214
16.43132019 -5.257006168 -6.278120995
16.33202934 -5.280529022 -6.24612999
16.23630905 -5.30465889 -6.215515137
16.00864029 -5.284690857 -6.133989811
15.94781017 -5.318926811 -6.116790771
15.85756016 -5.342947006 -6.088240147
15.79843044 -5.377050877 -6.07172823
15.67529964 -5.388864994 -6.030449867
15.76603031 -5.474195004 -6.072072983
15.76422024 -5.527821064 -6.07791996
15.73744965 -5.572710991 -6.07413578
15.77243996 -5.639616966 -6.094430923
15.81865978 -5.710936069 -6.119198799
15.80459023 -5.760725975 -6.120573997
15.86048985 -5.891594887 -6.156349182
15.84146023 -5.93989706 -6.156004906
15.90834999 -6.02070713 -6.189372063
15.90032959 -6.073504925 -6.193500042
15.91841984 -6.136443138 -6.207946777
15.92926979 -6.196825027 -6.219643116
16.09347916 -6.374667168 -6.299448013
15.97644997 -6.613595963 -6.292568207
15.99421024 -6.678497791 -6.307703972
17.48736954 -5.065429211 -6.736021042
17.30715942 -5.070846081 -6.672173023
17.26906013 -5.117263794 -6.663449764
17.19132996 -5.151662827 -6.639376163
17.09292984 -5.179382801 -6.607276917
17.10025978 -5.238934994 -6.61634922
17.10828018 -5.298858166 -6.625769138
16.23582077 -5.247894764 -6.31036377
16.1884594 -5.287498951 -6.29815197
16.0974102 -5.312473774 -6.268845081
15.99034977 -5.331605911 -6.233256817
15.88687992 -5.351326942 -6.199065208
15.76303005 -5.363522053 -6.156847954
15.89647007 -5.958980083 -6.278264999
15.89914989 -6.015679836 -6.286639214
15.95678997 -6.093511105 -6.316993237
15.94501972 -6.145133018 -6.319784164
15.9946003 -6.390750885 -6.370375156
17.38085938 -5.090834141 -6.815907955
17.26563072 -5.114642143 -6.776599884
17.23641968 -5.163561821 -6.771287918
17.19632912 -5.209095955 -6.761725903
17.2249794 -5.275526047 -6.779432774
17.19174004 -5.323090076 -6.772704124
16.00826073 -5.281386852 -6.341022015
15.94495964 -5.314797878 -6.322254181
15.90820026 -5.356825829 -6.314108849
15.82262993 -5.382111073 -6.286487103
15.87238026 -5.453423977 -6.313045979
15.98511982 -5.602066994 -6.37183094
16.7773304 10.99748993 -6.569705009
16.82929993 10.95788002 -6.576902866
16.82555962 10.94929981 -6.698740005
16.9084301 10.92953014 -6.718473911
15.77073002 10.9639101 -6.515859127
15.85801983 10.95258999 -6.538152218
16.88994026 10.91561031 -6.824088097
