# .PCD v0.7 - Point Cloud Data file format
VERSION 0.7
FIELDS x y z
SIZE 4 4 4
TYPE F F F
COUNT 1 1 1
WIDTH 52
HEIGHT 1
VIEWPOINT 0 0 0 1 0 0 0
POINTS 52
DATA ascii
14.97560024 30.90892029 -6.81116581
24.82733917 -40.29738998 -6.478928089
24.71134949 -40.38603973 -6.480974197
30.92889023 -28.0354805 -5.709590912
30.91356087 -27.85277939 -5.950284004
30.84996986 -27.96743011 -5.954556942
27.40278053 -27.90261078 -6.807672977
18.36170006 8.277188301 -7.213341236
18.52132034 7.942255974 -7.21740818
18.54560089 7.885396004 -7.21740818
18.25082016 8.364358902 -7.312835217
18.34074974 8.202162743 -7.318338871
18.37355042 8.149282455 -7.321434975
18.38728905 8.08795929 -7.316963196
18.39480019 8.024000168 -7.310082912
18.38055038 7.950751781 -7.294603825
18.40485954 7.894323826 -7.294603825
18.42034912 7.834146023 -7.291163921
18.4391098 7.775407791 -7.28910017
18.40136909 7.693085194 -7.264677048
18.33815002 8.135604858 -7.426842213
18.36388016 8.079683304 -7.427189827
18.36624908 8.013560295 -7.418118954
18.37182999 7.948987007 -7.410442829
18.3668499 7.880021095 -7.398581028
18.38231087 7.819965839 -7.39509201
18.39240074 7.757705212 -7.389509201
18.40661049 7.697264194 -7.385672092
18.48208046 7.662293911 -7.406604767
40.59690094 -8.870137215 -4.139241219
40.59749985 -8.717103004 -4.406971931
39.85551834 -9.338339806 -5.598145962
39.79872894 -9.453930855 -5.594191074
39.80131912 -9.583641052 -5.59869194
40.3577919 -9.197822571 -5.918942928
39.85343933 -9.340484619 -5.852844238
39.81592941 -9.460650444 -5.851562023
39.97076035 -9.241339684 -6.121988773
39.92007828 -9.358733177 -6.118573189
39.90367889 -9.484134674 -6.120502949
40.0200119 -9.230113983 -6.392839909
39.99631882 -9.353975296 -6.393613815
39.95782089 -9.474358559 -6.392066002
39.3166008 9.845962524 -6.540317059
39.14680099 9.928554535 -6.770227909
39.25743103 9.828525543 -6.784193039
39.28261185 9.706855774 -6.783361912
39.09556961 10.5564003 -6.788681984
39.00772095 10.40439034 -6.767734051
39.02706909 10.28139973 -6.765573025
39.07178116 10.16508961 -6.76789999
39.08845901 10.0414896 -6.765407085
