# .PCD v0.7 - Point Cloud Data file format
VERSION 0.7
FIELDS x y z
SIZE 4 4 4
TYPE F F F
COUNT 1 1 1
WIDTH 726
HEIGHT 1
VIEWPOINT 0 0 0 1 0 0 0
POINTS 726
DATA ascii
13.65499973 -18.65162086 -5.99815321
13.55331993 -18.63240051 -5.978438854
13.48645973 -18.66056061 -5.974143028
13.47824001 -18.7702198 -5.996130943
13.54685974 -18.61289978 -6.115084171
13.48460007 -18.64731979 -6.112759113
13.42282009 -18.68232918 -6.110692024
13.37160969 -18.73207092 -6.11353302
13.31072998 -18.76828003 -6.111983776
13.50389957 -18.55688095 -6.237980843
13.45086002 -18.60368919 -6.23982811
13.39260006 -18.64331055 -6.239299774
13.33870029 -18.68902016 -6.240882874
13.28240967 -18.73143005 -6.241411209
13.22710991 -18.77523994 -6.242465973
13.17000008 -18.81652069 -6.242731094
13.55315971 -18.49596977 -6.374548912
13.49295044 -18.53278923 -6.372931957
13.44167042 -18.58189964 -6.375627041
13.37954044 -18.61601067 -6.373201847
13.32069016 -18.65461922 -6.372394085
13.26506996 -18.69775963 -6.373201847
13.20431042 -18.73364067 -6.371584892
13.14070034 -18.7653904 -6.368621826
13.08745956 -18.81193924 -6.37077713
13.03625965 -18.86150932 -6.374010086
13.74343967 -18.53276062 -6.557837963
13.65629005 -18.5338192 -6.543263912
13.59879971 -18.57485008 -6.542990208
13.45586014 -18.73905945 -6.557013035
13.3301897 -18.68475914 -6.523467064
13.25611973 -18.70203972 -6.515217781
13.15106964 -18.67501068 -6.49157095
13.1251297 -18.76017952 -6.50724411
13.05819035 -18.78693008 -6.502570152
13.01360035 -18.84589958 -6.509169102
13.86028957 -18.67292023 -6.759377003
13.80976963 -18.72462082 -6.762744904
13.72560024 -18.73051071 -6.749554157
13.62852001 -18.71821976 -6.729907036
13.58003044 -18.77239037 -6.734396935
13.44787025 -18.71030045 -6.697069168
13.35861015 -18.70694923 -6.681070805
13.27449989 -18.71026993 -6.667599201
13.21150017 -18.7430706 -6.664792061
13.15007973 -18.77800941 -6.662827015
13.97677994 -18.72625923 -6.929605007
13.72004986 -18.73967934 -6.887299061
13.69180965 -18.82196999 -6.902163029
13.45532036 -18.73751068 -6.840417862
13.37996006 -18.75374031 -6.831271172
13.33343983 -18.81034088 -6.836987972
13.26352978 -18.83391953 -6.830698967
13.67819977 -18.7941494 -7.034580231
13.53472042 -18.71740913 -6.990025997
13.46494961 -18.74176025 -6.983619213
13.3491497 -18.82324028 -6.983327866
13.27865982 -18.84612083 -6.976631165
13.21310043 -18.87579918 -6.972554207
13.05461979 -18.89512062 -6.949840069
13.4751997 -18.75908089 -7.139640808
13.34438038 -18.81958961 -7.13132906
13.21714973 -18.88468933 -7.125093937
13.14552021 -18.90555 -7.117671967
13.08854008 -18.94735909 -7.118266106
12.83382034 -18.94922066 -7.07403183
12.7713604 -18.98216057 -7.071657181
13.48173046 -18.75741005 -7.282039165
13.40694046 -18.77463913 -7.272671223
13.35811043 -18.82811928 -7.277505875
13.29533958 -18.86199951 -7.274785995
13.23849964 -18.90426064 -7.275391102
13.15540028 -18.90879059 -7.261488914
13.06371975 -18.90044975 -7.242753029
12.99650002 -18.92708015 -7.237615108
14.52665043 30.22332001 -7.259531021
14.58310032 30.10386086 -7.241452217
14.6651001 30.03791046 -7.236347198
14.60665989 30.17421913 -7.478295803
31.28417015 -29.59189987 -5.638675213
31.29962921 -29.97256088 -5.674747944
30.97681046 -27.90975952 -5.962534904
28.84656906 -4.192182064 -3.437814951
28.8581295 -4.284307003 -3.440774918
28.87725067 -4.377734184 -3.444683075
28.94219017 -4.478454113 -3.454154968
28.96068001 -4.572336197 -3.458061934
28.97789001 -4.666214943 -3.461850882
28.98891068 -4.759277821 -3.464930058
28.95791054 -5.671457767 -3.480559111
28.88485909 -5.74922514 -3.473809958
28.71986008 -3.453373909 -3.595621109
28.64709091 -3.53381896 -3.587769032
28.60264969 -3.617459059 -3.583530903
28.55204964 -3.700093985 -3.578546047
28.56319046 -3.790674925 -3.581412077
28.53963089 -3.876686096 -3.579916
28.5806694 -3.97159791 -3.586647034
28.6096096 -4.065124989 -3.59188199
28.65690041 -4.161573887 -3.599484921
28.65184975 -4.250637054 -3.600481987
28.6857605 -4.34565115 -3.606465101
28.70465088 -4.438640118 -3.61057806
28.73597908 -4.53379488 -3.616312027
28.72879982 -4.623036861 -3.617183924
28.72426987 -4.712759972 -3.618431091
28.73609924 -4.805280209 -3.621795893
28.7593708 -4.899917126 -3.626657009
28.76180077 -4.991178989 -3.628900051
28.77858925 -5.085091114 -3.63301301
28.79117012 -5.178451061 -3.636627913
28.79857063 -5.271042824 -3.639619112
28.78129005 -5.359189987 -3.639494896
28.80175972 -5.454477787 -3.644231081
28.86965942 -5.559134007 -3.655075073
28.76288033 -5.63014698 -3.643608093
28.48069 -3.507173061 -3.744713068
28.47962952 -3.595776081 -3.746020079
28.49205971 -3.686187029 -3.749155998
28.49241066 -3.775146008 -3.750725031
28.50918007 -3.866405964 -3.754514933
28.51878929 -3.956851006 -3.757390022
28.54283905 -4.049480915 -3.762226105
28.55872917 -4.141158104 -3.76601696
28.5968895 -4.236311913 -3.772813082
28.60532951 -4.327289104 -3.775687933
28.62033081 -4.419416904 -3.779479027
28.64580917 -4.513376236 -3.784707069
28.64650917 -4.603599072 -3.786667109
28.66061974 -4.696114063 -3.79045701
28.68226051 -4.790064812 -3.795293093
28.68795967 -4.881532192 -3.798038006
28.70215034 -4.974603176 -3.801959038
28.71603966 -5.067807198 -3.80588007
28.72866058 -5.160966873 -3.809669971
28.7302494 -5.252291203 -3.812022924
28.73251915 -5.343854904 -3.814506054
28.73060036 -5.434743881 -3.816467047
28.74201965 -5.52829504 -3.820256948
28.73174095 -5.617780209 -3.821171999
28.7289505 -5.708799839 -3.823132038
28.76511002 -3.370301962 -3.949528933
28.46055031 -3.42316103 -3.908742905
28.45778084 -3.511430979 -3.909833908
28.47537041 -3.602328062 -3.913789988
28.4710598 -3.690563917 -3.914745092
28.48218918 -3.780893087 -3.917881966
28.48419952 -3.870125055 -3.919791937
28.50947952 -3.962677956 -3.924974918
28.52956009 -4.054726124 -3.929476976
28.55228043 -4.147360802 -3.934387922
28.56784058 -4.239155769 -3.938343048
28.59680939 -4.333162785 -3.944209099
28.61470985 -4.425723076 -3.948574066
28.63231087 -4.51843214 -3.952939034
28.64570045 -4.610661983 -3.956758022
28.65879059 -4.703015804 -3.960577965
28.66963005 -4.795166969 -3.964123964
28.67041016 -4.885765076 -3.966306925
28.69335938 -4.98030901 -3.971626997
28.70721054 -5.073488235 -3.975718975
28.70906067 -5.164693832 -3.978173971
28.72230911 -5.258100986 -3.982265949
28.72649956 -5.350004196 -3.985131025
28.7216301 -5.440322876 -3.986768007
28.7135601 -5.530099869 -3.987996101
28.44960976 -3.423885107 -4.085674763
28.44683075 -3.512120962 -4.086813927
28.45162964 -3.601366997 -4.089094162
28.46302986 -3.69156599 -4.092370987
28.4751091 -3.781999111 -4.095788956
28.49967003 -3.874274015 -4.101059914
28.51215935 -3.96510005 -4.104620934
28.53807068 -4.057990074 -4.110177994
28.54899979 -4.148940086 -4.113595963
28.58214951 -4.243339062 -4.120292187
28.60423088 -4.336348057 -4.125420094
28.61720085 -4.428170204 -4.129265785
28.62988091 -4.520112991 -4.133112907
28.64812088 -4.613120079 -4.137814045
28.66704941 -4.706439972 -4.142656803
28.67491913 -4.798123837 -4.145934105
28.69227028 -4.891563892 -4.150634766
28.69467926 -4.982614994 -4.153199196
28.70557976 -5.075279236 -4.157044888
28.7112999 -5.167179108 -4.160180092
28.71283913 -5.258449078 -4.162744045
28.71213913 -5.349413872 -4.16502285
28.71310043 -5.440793991 -4.167586803
28.70598984 -5.530731201 -4.16901207
28.75299072 -5.63132906 -4.178413868
28.79463005 -3.377868891 -4.315042019
28.42968941 -3.423526049 -4.261434078
28.42395973 -3.511337042 -4.262176991
28.43070984 -3.600759983 -4.26485014
28.43424034 -3.68987608 -4.267076969
28.44828033 -3.780478954 -4.27093792
28.46299934 -3.871336937 -4.27494812
28.49213028 -3.964365005 -4.28118515
28.51605988 -4.056910992 -4.286678791
28.54458046 -4.150352001 -4.292915821
28.55616951 -4.241538048 -4.296627998
28.57527924 -4.334019184 -4.301528931
28.59019089 -4.426053047 -4.305836201
28.61652946 -4.520070076 -4.311923981
28.63669968 -4.6133461 -4.317121983
28.63120079 -4.70262289 -4.31845808
28.65173912 -4.796316147 -4.323803902
28.66028976 -4.888185978 -4.327367783
28.67049026 -4.980491161 -4.33122921
28.67552948 -5.072042942 -4.334348202
28.68124008 -5.163848877 -4.337615013
28.68277931 -5.255023956 -4.340288162
28.68304062 -5.346076965 -4.342812061
28.68302917 -5.437180996 -4.34533596
28.6710701 -5.526089191 -4.346078873
28.76363945 -5.635506153 -4.362860203
28.83000946 -3.276032925 -4.505064011
28.83453941 -3.366185904 -4.507384777
28.41208076 -3.405237913 -4.442406178
28.41621017 -3.494199038 -4.444726944
28.40928078 -3.581856012 -4.445345879
28.40696907 -3.670137882 -4.446737766
28.41124916 -3.759346008 -4.449213982
28.43384933 -3.851135015 -4.454627991
28.45713043 -3.943233967 -4.460197926
28.47423935 -4.03467989 -4.464838982
28.49497032 -4.126834869 -4.470098972
28.52713966 -4.220890999 -4.477215767
28.53750038 -4.311933994 -4.480928898
28.54756927 -4.403079987 -4.484642029
28.55442047 -4.493868828 -4.487891197
28.57756996 -4.587402821 -4.493770123
28.58871078 -4.679205894 -4.497793198
28.59760094 -4.770795822 -4.501505852
28.61400032 -4.863809109 -4.506455898
28.62815094 -4.95663023 -4.511097908
28.6420002 -5.049583912 -4.515738964
28.63998032 -5.139875889 -4.517905235
28.64838028 -5.23215723 -4.521772861
28.64481926 -5.322371006 -4.523784161
28.64193916 -5.412796021 -4.525949955
28.69894028 -5.514814854 -4.537707806
28.79241943 -5.624433041 -4.555345058
28.78985977 -3.373203039 -4.666477203
28.42951012 -3.41942811 -4.609275818
28.38459969 -3.502401114 -4.603669167
28.39429092 -3.592068911 -4.607032776
28.40369034 -3.681828976 -4.610397816
28.39813042 -3.769732952 -4.611359119
28.41382027 -3.860560894 -4.615846157
28.43313026 -3.952064037 -4.62097311
28.45116043 -4.043582916 -4.625939846
28.46694946 -4.134965897 -4.630586147
28.49514008 -4.228367805 -4.637316227
28.50546074 -4.319318771 -4.641160965
28.52718925 -4.412183762 -4.646928787
28.5398407 -4.503838062 -4.651256084
28.55220032 -4.595612049 -4.655580997
28.56913948 -4.688302994 -4.660708904
28.58480072 -4.780976772 -4.665676117
28.59334946 -4.872632027 -4.669520855
28.60257912 -4.964551926 -4.673526764
28.6251297 -5.058980942 -4.679776192
28.63472939 -5.151321888 -4.683940887
28.63335037 -5.241814137 -4.6863451
28.63751984 -5.333430767 -4.68971014
28.63750076 -5.424386978 -4.69243288
28.63332939 -5.514647007 -4.694517136
28.72961044 -5.624658108 -4.713263035
29.0421505 -3.314538956 -4.889413834
28.43777084 -3.422460079 -4.790328026
28.39875984 -3.506186008 -4.785505772
28.40057945 -3.594906092 -4.787666798
28.40114975 -3.683542013 -4.789661884
28.40535927 -3.772736073 -4.792322159
28.41612053 -3.862919092 -4.796145916
28.42757988 -3.953340054 -4.800136089
28.44753075 -4.045115948 -4.805623055
28.47500038 -4.138186932 -4.812438965
28.4543705 -4.224369049 -4.811109066
28.49684906 -4.32006979 -4.820584774
28.52438927 -4.413808823 -4.827568054
28.53797913 -4.505606174 -4.832222939
28.54836082 -4.597055912 -4.836379051
28.56137085 -4.689093113 -4.841033936
28.58185959 -4.78255415 -4.847020149
28.60399055 -4.876515865 -4.853336811
28.60930061 -4.967792034 -4.856828213
28.625 -5.061034203 -4.862147808
28.63456917 -5.153370857 -4.866470814
28.63607979 -5.244392872 -4.869462967
28.63633919 -5.335292816 -4.872290134
28.64599037 -5.428080082 -4.876779079
28.63986015 -5.517991066 -4.878606796
28.70697975 -5.622317791 -4.893071175
28.73409081 -5.719216824 -4.900719166
28.64434052 -3.350115061 -5.009934902
28.43050957 -3.413563013 -4.974067211
28.39349937 -3.497519016 -4.969410896
28.38850021 -3.58535409 -4.97044611
28.39201927 -3.674326897 -4.973031998
28.39429092 -3.763226986 -4.975447178
28.40114975 -3.852835894 -4.978723049
28.40871048 -3.942658901 -4.982172012
28.43354034 -4.035055161 -4.988725185
28.4551506 -4.127215862 -4.99476099
28.47743034 -4.21969223 -5.000967979
28.49161911 -4.311164856 -5.005796909
28.50844002 -4.403214931 -5.011143208
28.52203941 -4.494949818 -5.015971184
28.53729057 -4.587121964 -5.021143913
28.5561409 -4.680067062 -5.027008057
28.55816078 -4.770411968 -5.029939175
28.58610916 -4.865274906 -5.037527084
28.59435081 -4.956989765 -5.041666031
28.61198997 -5.050512791 -5.04752779
28.62350082 -5.143146992 -5.052357197
28.64246941 -5.237315178 -5.05856514
28.63692093 -5.3271451 -5.060461998
28.63883018 -5.418455124 -5.063737869
28.63272095 -5.508338928 -5.065635204
28.71138954 -5.614869118 -5.082706928
28.75429916 -3.366985083 -5.201334
28.38542938 -3.500464916 -5.137926102
28.40774918 -3.591732025 -5.14398098
28.37708092 -3.676340103 -5.140419006
28.37151909 -3.764158964 -5.141488075
28.38908958 -3.855156898 -5.146831989
28.39076996 -3.94413209 -5.149324894
28.41653061 -4.036612988 -5.156270981
28.4303093 -4.127593994 -5.161080837
28.45936012 -4.221005917 -5.168739796
28.47448921 -4.312572956 -5.173904896
28.48933029 -4.404272079 -5.179069996
28.50872993 -4.496870041 -5.185125828
28.5161705 -4.587750912 -5.189043999
28.53012085 -4.679835796 -5.194210052
28.54668999 -4.772537231 -5.199910164
28.5687809 -4.866374969 -5.206677914
28.59539986 -4.961235046 -5.214336872
28.60038948 -5.052536011 -5.218078136
28.61284065 -5.145308971 -5.223243237
28.6259594 -5.238382816 -5.228586197
28.63006973 -5.329964161 -5.232326984
28.62711906 -5.420338154 -5.234819889
28.63740921 -5.51335001 -5.239808083
28.67153931 -5.611199856 -5.249248028
28.64429092 -5.788578987 -5.250672817
28.66669083 -3.353699923 -5.362276077
28.41618919 -3.412796021 -5.317024231
28.40266037 -3.49959898 -5.316472054
28.38983917 -3.586473942 -5.316103935
28.38162041 -3.673934937 -5.316656113
28.37118912 -3.761121035 -5.316840172
28.38386917 -3.851449013 -5.321438789
28.40209961 -3.942701101 -5.327140808
28.41419983 -4.03327322 -5.331739902
28.43477058 -4.125226021 -5.337995052
28.44919968 -4.216478825 -5.343144894
28.4633503 -4.307858944 -5.348296165
28.4742794 -4.398914814 -5.352893829
28.49074936 -4.490996838 -5.358596802
28.5146904 -4.584469795 -5.365770817
28.52667999 -4.676224232 -5.370738029
28.54612923 -4.769390106 -5.377175808
28.5623703 -4.862225056 -5.383061886
28.58024979 -4.95554018 -5.389317036
28.59297943 -5.048155785 -5.394650936
28.61508942 -5.142634869 -5.401824951
28.62335014 -5.234821796 -5.406424999
28.63324928 -5.327467918 -5.411390781
28.62932014 -5.417664051 -5.41378212
28.63380051 -5.509559155 -5.41782999
28.64088058 -5.602097034 -5.422428131
28.64958954 -5.695115089 -5.427394867
28.94220924 -3.303133965 -5.586160183
28.74666023 -3.370192051 -5.550134182
28.40961075 -3.419071913 -5.486615181
28.37755013 -3.503568888 -5.482442856
28.37738037 -3.591969967 -5.484529018
28.38472939 -3.681412935 -5.488132
28.38497925 -3.770030022 -5.49040699
28.3956604 -3.860136986 -5.494768143
28.41091919 -3.95102191 -5.500076771
28.41906929 -4.041069984 -5.504058838
28.42985916 -4.131628036 -5.508608818
28.44132996 -4.222434044 -5.51335001
28.45445061 -4.313643932 -5.518468857
28.4663105 -4.40482378 -5.523398876
28.47884941 -4.496271133 -5.5285182
28.4969101 -4.58877182 -5.534776211
28.50885963 -4.680472851 -5.539895058
28.53019905 -4.773910046 -5.546910763
28.54929924 -4.867190838 -5.553546906
28.56904984 -4.960803986 -5.560372829
28.58560944 -5.054069996 -5.566629887
28.61731911 -5.150266171 -5.575921059
28.64388084 -5.245820999 -5.584263802
28.61993027 -5.332234859 -5.582746983
28.64394951 -5.427691936 -5.590710163
28.64355087 -5.518702984 -5.593934059
28.72283936 -5.625423908 -5.612895012
28.75900078 -5.815958977 -5.626925945
30.03272057 -3.149949074 -5.983760834
29.7421093 -3.211760998 -5.927427769
29.46310043 -3.273118019 -5.873441219
29.1606102 -3.330125093 -5.814760208
28.78305054 -3.376512051 -5.741016865
28.52038002 -3.434443951 -5.690355778
28.35495949 -3.502815962 -5.659255028
28.36742973 -3.592747927 -5.663949013
28.36989021 -3.681526899 -5.666687012
28.36817932 -3.769839048 -5.668643951
28.38272095 -3.860420942 -5.673924923
28.39502907 -3.950858116 -5.678814888
28.45170975 -4.047758102 -5.69270277
28.41295052 -4.13121891 -5.687421799
28.43021965 -4.222835064 -5.693484783
28.58886909 -4.425848007 -5.730845928
28.70496941 -4.534033775 -5.75705719
28.61831093 -4.610383987 -5.742385864
28.55563927 -4.690216064 -5.732605934
28.73804092 -5.174071789 -5.784832001
28.73843002 -5.265217781 -5.788156986
28.77323914 -5.362883091 -5.798524857
28.76724052 -5.453142166 -5.800675869
28.81393051 -5.553619862 -5.813586235
28.87933922 -5.750226974 -5.833929062
28.72603989 -5.811388016 -5.806348801
28.74264908 -5.906596184 -5.813391209
29.27897072 -3.24128294 -6.023477077
29.04310989 -3.305389881 -5.976707935
28.6164608 -3.345777988 -5.890427113
28.32015038 -3.399228096 -5.831159115
28.30764008 -3.48585701 -5.830756187
28.50477028 -3.598952055 -5.873897076
28.48582077 -3.685379982 -5.872283936
28.53025055 -3.958441973 -5.888813972
28.55772972 -4.051595211 -5.897078991
28.55970955 -4.141298771 -5.900104046
28.59627914 -4.23622179 -5.910385132
28.58605957 -4.324374199 -5.910988808
28.68185997 -4.519058228 -5.936591148
28.6313591 -4.691318035 -5.931954861
28.70281982 -5.065472126 -5.95937109
28.75790977 -5.257349014 -5.97751379
28.7609005 -5.349134922 -5.981545925
28.7607193 -5.440443039 -5.984972954
28.7198391 -5.524027824 -5.979932785
28.85832977 -5.73451519 -6.016220093
28.75035095 -5.80479908 -5.997270107
28.77750969 -5.902226925 -6.006744862
28.47629929 -3.420017004 -6.035870075
28.46858978 -3.507724047 -6.036491871
28.52899933 -3.693013906 -6.054106236
28.51840019 -3.869704962 -6.056799889
28.50830078 -3.51970911 -6.212885857
30.12188911 -3.242125988 -6.754425049
28.56045914 -3.340307951 -6.408901215
28.43672943 -3.414309978 -6.38329792
28.32834053 -3.493422985 -6.539348125
27.22116089 -3.866760015 -6.297667027
27.2467804 -3.955717087 -6.306427002
28.33853912 -3.408483982 -6.707313061
28.33083916 -3.495767117 -6.708003044
27.45667076 -3.559058905 -6.504868984
27.29803085 -3.623682976 -6.469670773
27.21261978 -3.782402992 -6.454718113
27.03480911 -3.926920891 -6.417910099
26.99733925 -4.3453269 -6.424120903
27.12451935 -3.687355042 -6.602687836
26.66646957 -3.708451033 -6.493267059
26.71364975 -3.798588991 -6.507651806
26.84365082 -4.153759003 -6.551515102
26.67962074 -3.795721054 -6.658883095
25.91324997 9.54757309 -7.004205227
25.43110085 -3.926820993 -6.523709774
25.64464951 9.085672379 -7.066759109
25.66966057 9.005991936 -7.065999985
25.26936913 -3.987684011 -6.642399788
23.88554001 -4.448359966 -6.306501865
25.66596985 9.101223946 -7.241071224
25.6718998 9.014757156 -7.234870911
23.64060974 -4.321071148 -6.385538101
22.95085907 -6.345836163 -6.326642036
22.9616909 -6.500751019 -6.340590954
22.93328094 -6.568770885 -6.338265896
22.95651054 -6.728109837 -6.356090069
23.01642036 -4.354929924 -6.367805958
22.87413025 -4.400745869 -6.331920147
22.82588959 -4.536880016 -6.326114178
22.79389954 -4.603260994 -6.321101189
22.93919945 -5.147633076 -6.391026974
22.97314072 -5.229329109 -6.405012131
22.88990974 -5.35832119 -6.390762806
22.83300972 -5.418945789 -6.379415989
22.76094055 -5.475663185 -6.363848209
22.70280075 -5.535416126 -6.352238178
22.74002075 -5.618456841 -6.36754179
22.70116043 -5.682808876 -6.361473083
22.67613983 -5.750533104 -6.359362125
22.65745926 -5.819835186 -6.359097958
22.71791077 -5.909714222 -6.38126421
22.66422081 -5.970048904 -6.371236801
22.63928032 -6.03781414 -6.369390011
22.77429962 -6.148716927 -6.412929058
22.76649094 -6.221610069 -6.41609478
22.80401039 -6.307108879 -6.432190895
22.85582924 -6.472664833 -6.458051205
24.56768036 -4.098338127 -6.927677155
24.5492897 -4.172722816 -6.9260602
22.64325905 -4.495141029 -6.417925835
22.59725952 -4.558113098 -6.408765793
22.57184982 -4.625098228 -6.405532837
22.55850029 -4.694521904 -6.405801773
22.5666008 -4.76848793 -6.412269115
22.59235954 -4.846385956 -6.423853874
21.69475937 -4.723458767 -6.171133995
22.62520027 -4.998843193 -6.441905022
22.63418961 -5.073709965 -6.448910236
22.69269943 -5.159998894 -6.470194817
22.66362 -5.226564884 -6.466423035
22.69485092 -5.380638123 -6.484744072
22.70163918 -5.45586586 -6.49147892
22.55175972 -5.713459015 -6.468039989
22.0490799 -5.658123016 -6.327939034
21.90205956 -5.692066193 -6.290489197
21.95248032 -5.77712822 -6.310156822
21.87044907 -5.827339172 -6.291565895
21.87478065 -5.900428772 -6.298033237
21.73765945 -5.935039043 -6.26354599
21.72956085 -6.0045228 -6.26651001
21.66596985 -6.202141762 -6.264355183
21.71899033 -6.289481163 -6.285369873
21.75411987 -6.372057915 -6.301266193
21.74555016 -6.442051888 -6.304499149
21.73951912 -6.512883186 -6.308539867
21.70558929 -6.648126125 -6.310426235
21.67037964 -6.710127831 -6.306116104
24.49530029 -4.174221039 -7.065701008
23.10606003 -4.303180218 -6.681023121
22.55051994 -4.34304285 -6.527040958
22.50176048 -4.477013111 -6.520718098
22.45681953 -4.539739132 -6.511642933
22.23936081 -4.566836834 -6.452250957
21.7057209 -4.665845871 -6.308718204
21.66593933 -4.726881981 -6.30129385
21.54713058 -4.770259857 -6.270772934
21.57806969 -5.125546932 -6.302118778
21.56917953 -5.333622932 -6.313667774
21.59934044 -5.411456108 -6.327415943
21.60034943 -5.482190132 -6.332641125
21.66350937 -5.569021225 -6.356287003
21.66333008 -5.710909843 -6.3664608
21.66242027 -5.781807899 -6.371410847
21.6501503 -5.849744797 -6.37306118
21.64230919 -5.918930054 -6.376084805
21.62590027 -5.985812187 -6.376635075
21.66205978 -6.067431927 -6.392858028
21.66831017 -6.140941143 -6.400281906
21.66415977 -6.211628914 -6.404682159
21.71236038 -6.369884014 -6.430529118
21.70285034 -6.439476013 -6.433553219
21.70602036 -6.512937069 -6.440426826
21.70892906 -6.586479187 -6.447300911
21.68770981 -6.652768135 -6.447025776
21.59923935 -6.698197842 -6.426679134
21.65564919 -6.788591862 -6.449776173
21.64022064 -6.856740952 -6.451426029
21.63739967 -6.928965092 -6.456924915
23.00231934 -4.273232937 -6.800634861
22.46463966 -4.387623787 -6.652442932
22.20046043 -4.54854393 -6.585925102
22.08115959 -4.594735146 -6.554490089
22.15428925 -4.680908203 -6.580592155
21.53388023 -4.757287979 -6.407981873
21.47797966 -4.81409502 -6.395633221
21.47434044 -4.882518768 -6.399001122
21.50227928 -4.958298206 -6.411911011
21.48041916 -5.022713184 -6.409946918
21.54346085 -5.177069187 -6.438293934
21.5218792 -5.24177599 -6.436610222
21.51781082 -5.310770035 -6.44025898
21.53494072 -5.38514185 -6.450363159
21.52947998 -5.454012871 -6.45373106
21.52194023 -5.522424221 -6.45653677
21.53128052 -5.665855885 -6.469728947
21.53976059 -5.738803864 -6.477587223
21.51185989 -5.802111149 -6.474500179
21.54117966 -5.880972862 -6.488813877
21.56467056 -5.958535194 -6.501443863
21.59157944 -6.037330151 -6.5151968
21.63718033 -6.193470001 -6.540456772
21.65402985 -6.270234108 -6.551403046
21.66139984 -6.344460964 -6.559542179
21.66208076 -6.416883945 -6.56571722
21.65793037 -6.487995148 -6.570487976
21.65444946 -6.559418201 -6.575540066
21.6406498 -6.627789021 -6.577505112
21.63672066 -6.699260235 -6.582557201
21.61441994 -6.837974072 -6.588450909
22.58798027 -4.349794865 -6.820980072
22.42782974 -4.390361786 -6.776387215
22.44621086 -4.465505123 -6.78610611
22.33095932 -4.513847828 -6.755232811
22.18652916 -4.555552959 -6.715498924
22.13492012 -4.615776062 -6.704064846
22.16753006 -4.693585873 -6.71835804
21.50445938 -4.691273212 -6.524834156
21.45535088 -4.749564171 -6.514256954
21.42572021 -4.81200695 -6.509683132
21.31461906 -4.855799198 -6.480239868
21.29961967 -4.92116785 -6.480239868
21.48129082 -5.032601833 -6.540555954
21.43124962 -5.09029007 -6.529979229
21.44068909 -5.162071228 -6.537696838
21.41078949 -5.224420071 -6.533410072
21.47001076 -5.308710098 -6.556563854
21.48893929 -5.383400917 -6.567426205
21.47871017 -5.52111578 -6.57457304
21.45384026 -5.72573185 -6.5828619
21.43894005 -5.792273998 -6.583720207
21.42200089 -5.858273029 -6.584005833
21.43717003 -5.933166981 -6.594295979
21.54838943 -6.178011894 -6.646037102
21.5366993 -6.246228218 -6.648324013
21.53857994 -6.31847477 -6.654898167
21.26277924 -6.308492184 -6.575143814
21.27820015 -6.384158134 -6.586007118
21.29335976 -6.459979057 -6.596868992
21.33390999 -6.543818951 -6.615736008
21.34943008 -6.620306969 -6.626883984
21.30798912 -6.679183006 -6.620308876
21.34403038 -6.762465954 -6.63803196
21.37520981 -6.844571114 -6.654325962
21.35320091 -6.909821987 -6.65403986
21.35193062 -6.981852055 -6.660328865
22.42214012 -4.383833885 -6.913438797
22.46582031 -4.463980198 -6.931202888
22.13625908 -4.610659122 -6.841804028
22.09767914 -4.673401833 -6.834231853
21.32654953 -4.578677177 -6.598649025
21.36474991 -4.655492783 -6.614955902
21.34476089 -4.719778061 -6.613208771
21.36845016 -4.793828011 -6.62514782
21.35923958 -4.860638142 -6.626894951
21.36565971 -4.931093216 -6.633593082
21.38489914 -5.004685879 -6.644368172
21.36478996 -5.069166183 -6.642911911
21.32681084 -5.129319191 -6.635922909
21.35001945 -5.204242229 -6.648152828
21.32559013 -5.267652988 -6.645533085
21.22673035 -5.312378883 -6.619616032
21.16212082 -5.365249157 -6.604473114
21.1177597 -5.423007965 -6.59573698
21.11676025 -5.491865158 -6.600687027
21.10998917 -5.559305191 -6.603889942
21.12055969 -5.631439209 -6.612627029
21.12535095 -5.702194214 -6.619616032
21.12990952 -5.773031235 -6.626605034
21.17848015 -5.856190205 -6.647571087
21.22398949 -5.938929081 -6.667664051
21.20842934 -6.004796982 -6.668538094
21.20093918 -6.072997093 -6.672031879
21.16016006 -6.13161993 -6.665042877
21.21285057 -6.217502117 -6.687757015
21.2184391 -6.289895058 -6.69562006
21.32275009 -6.392055035 -6.734931946
21.28656006 -6.452445984 -6.729690075
21.23834991 -6.580388069 -6.727068901
21.22719002 -6.648375034 -6.729980946
22.30093956 -4.433009148 -7.027719021
22.30220985 -4.504432201 -7.032468796
22.22841072 -4.560548782 -7.013470173
22.18346977 -4.622294903 -7.003673077
22.15049934 -4.686378002 -6.997735023
22.23236084 -4.846406937 -7.033062935
21.22719955 -4.695540905 -6.717782021
20.98720932 -4.710035801 -6.64593792
21.00617981 -4.782032967 -6.656626225
21.09654999 -4.870732784 -6.690173149
20.96529007 -4.908222198 -6.65306282
21.02725029 -4.990825176 -6.677703857
21.13253021 -5.084352016 -6.716298103
21.13075066 -5.152554989 -6.720750809
21.00082016 -5.189183235 -6.684235096
21.15616989 -5.296494007 -6.7391572
21.13611984 -5.360435963 -6.737968922
21.1389904 -5.430244923 -6.744204044
21.27697945 -6.665391922 -7.160326958
21.26893997 -4.630725861 -7.132162094
21.22496033 -4.689397812 -7.12214613
21.28089905 -4.77028513 -7.145934105
21.25505066 -4.833024025 -7.142178059
21.29565048 -4.911018848 -7.160957813
21.28326035 -4.976978779 -7.161897182
25.15312004 12.66713047 -7.143608093
25.15576935 11.99077988 -7.239383221
16.08702087 35.13887024 -7.914599895
16.21445084 35.13203049 -7.924275875
16.33703041 35.11408997 -7.931533813
16.42472076 35.02124023 -7.92185688
40.57281876 -8.847398758 -3.895024061
40.64160919 -8.879906654 -4.14384079
40.79679108 -8.759900093 -4.428792
40.79790115 -8.772894859 -4.937994003
39.83572006 -9.20486927 -5.591326237
39.80632019 -9.326813698 -5.591188908
39.78427124 -9.450496674 -5.592144012
39.85298157 -9.211485863 -5.84856987
39.82743073 -9.334386826 -5.84899807
39.77548981 -9.451040268 -5.845579147
39.75688934 -9.575574875 -5.847146034
42.53976822 7.239120007 -6.441263199
40.00568008 -9.120205879 -6.123027802
39.93608093 -9.23332119 -6.116641998
39.89601135 -9.35309124 -6.114861012
39.85942841 -9.473617554 -6.11367321
42.66732025 7.284254074 -6.739545822
42.71284866 7.157236099 -6.743258953
42.73752975 7.026641846 -6.743722916
40.00172043 -9.225893974 -6.389901161
39.99438858 -9.353525162 -6.393303871
39.94532013 -9.471394539 -6.39005518
39.03353119 11.97875023 -7.109107018
