# .PCD v0.7 - Point Cloud Data file format
VERSION 0.7
FIELDS x y z
SIZE 4 4 4
TYPE F F F
COUNT 1 1 1
WIDTH 53
HEIGHT 1
VIEWPOINT 0 0 0 1 0 0 0
POINTS 53
DATA ascii
13.84127998 -28.59016037 -6.094882011
13.82573986 -28.56300926 -6.290077209
13.84377956 -28.5727005 -6.495199203
13.73908043 -28.57972908 -6.487135887
13.64881039 -28.61643982 -6.485926151
13.52408981 -28.58027077 -6.468185902
13.83631039 -28.5622406 -6.683252811
13.74650002 -28.60014915 -6.682217121
13.65027046 -28.62453079 -6.678071976
13.56112957 -28.66362 -6.677451134
13.43280983 -28.61918068 -6.65734911
13.35980988 -28.69219017 -6.664810181
13.94013977 -28.57052994 -6.880093098
13.82857037 -28.56390953 -6.868182182
13.72395039 -28.57097054 -6.859673977
13.6311903 -28.60235977 -6.857121944
13.54629993 -28.65023041 -6.858611107
13.45127964 -28.67661095 -6.854994774
13.35663986 -28.70356941 -6.851592064
13.44396973 -28.64010048 -7.05552721
13.34986019 -28.66794968 -7.05224514
14.98437023 31.17038918 -6.858892918
14.9782896 30.46581078 -6.947771072
12.36001015 34.2254715 -7.668625832
12.46327972 34.18278885 -7.667590141
14.9563303 31.63233948 -7.372289181
14.84901047 31.6365509 -7.567503929
14.5690403 30.07484055 -7.234433174
14.65095043 30.00893021 -7.229329109
14.57392979 30.10659027 -7.461445808
31.33507919 -29.45844078 -5.631486893
31.28344917 -29.59122086 -5.638545036
31.23991013 -29.7321701 -5.647171021
31.13184929 -29.99552917 -5.660893917
30.97019005 -27.90379906 -5.961253166
27.01260948 -25.88278961 -6.268643856
27.37792969 -27.8773098 -6.801465988
24.75138092 -26.80244064 -6.788451195
40.61769867 -8.738913536 -3.633866072
40.58837891 -8.850792885 -3.896532059
40.5385704 -8.857396126 -4.133240223
39.80580139 -9.197954178 -5.587097168
39.81694031 -9.329299927 -5.592689991
39.74378967 -9.440880775 -5.586414814
39.73101044 -9.566710472 -5.58873415
39.82260895 -9.333257675 -5.848285198
39.76393127 -9.44829464 -5.843869209
39.9341507 -9.232875824 -6.116344929
39.90082169 -9.354219437 -6.11560297
39.85942841 -9.473617554 -6.11367321
39.98284912 -9.350824356 -6.391448021
39.95013046 -9.47253418 -6.390829086
40.0077095 -9.503576279 -6.636131763
