# .PCD v0.7 - Point Cloud Data file format
VERSION 0.7
FIELDS x y z
SIZE 4 4 4
TYPE F F F
COUNT 1 1 1
WIDTH 66
HEIGHT 1
VIEWPOINT 0 0 0 1 0 0 0
POINTS 66
DATA ascii
14.96662045 30.8903904 -6.807057858
14.96920967 30.44734955 -6.943537235
14.82301044 30.3799305 -7.120920181
14.56776047 30.07221031 -7.233795166
14.66166973 30.03087997 -7.234645844
24.75235939 -38.30398941 -5.6908288
24.56893921 -37.01990891 -6.079526901
24.42761993 -37.30173874 -6.101215839
24.30443001 -37.36322021 -6.099033833
24.42624092 -37.80373001 -6.159052849
24.4605999 -38.37141037 -6.22739315
24.43869019 -38.59777069 -6.252081871
24.36445045 -38.74300003 -6.263541222
24.36092949 -39.00241852 -6.293550014
30.7304306 -39.13872147 -7.123411179
30.61203957 -39.23514938 -7.123837948
25.5394001 -35.80350876 -6.291182041
25.41226006 -35.85747147 -6.28690815
25.25597954 -35.86970901 -6.275369167
25.15319061 -35.95756912 -6.277221203
25.00659943 -35.98255157 -6.268104076
24.47491074 -36.39640045 -6.274086952
24.42635918 -36.56597137 -6.29046917
24.36058998 -36.71083069 -6.302577972
24.36660004 -36.96556091 -6.333632946
24.37344933 -37.22396851 -6.365259171
24.33036995 -37.40810013 -6.384062767
24.35514069 -37.69873047 -6.421102047
24.38940048 -38.52508926 -6.523954868
24.84705925 -35.75767136 -6.500069141
24.73048973 -35.82397079 -6.498287201
24.5936203 -35.86051941 -6.491158962
24.50909996 -35.97340012 -6.497990131
24.44628906 -36.11885071 -6.510760784
24.29402924 -37.10763168 -6.621691227
30.96651077 -27.90048027 -5.960540771
24.47411919 -29.06537056 -5.911536217
24.73337936 -26.78293991 -6.783483982
24.18586922 -27.00979996 -6.745957851
24.10551071 -27.08680916 -6.746694088
24.08469963 43.79533005 -7.788173199
24.21368027 43.71173096 -7.78647089
40.74137115 -8.765523911 -3.645045042
40.65842056 -8.866064072 -3.903320074
40.68730164 -8.889886856 -4.148541927
40.88526154 -8.778898239 -4.438477993
40.81925964 -8.777486801 -4.940598011
39.93943024 -9.358002663 -5.610013962
39.87102127 -9.471103668 -5.604421139
39.94675064 -9.618659973 -5.619288921
40.89921188 -8.794678688 -5.982479095
39.86307907 -9.342743874 -5.854269028
39.83905029 -9.466141701 -5.854979992
40.02922058 -9.641162872 -5.887461185
39.99869919 -9.24779892 -6.12629509
39.91719055 -9.358057022 -6.118127823
39.92004013 -9.488021851 -6.123027802
39.79267883 -9.586827278 -6.107881069
40.0200119 -9.230113983 -6.392839909
39.99343109 -9.353300095 -6.393148899
39.96165848 -9.475270271 -6.392684937
39.25616074 6.437739849 -6.4185462
39.27376938 6.316959858 -6.418224812
39.32350159 6.077672005 -6.420147896
39.17993927 6.422701836 -6.655014992
39.18486023 6.300120831 -6.652521133
