# .PCD v0.7 - Point Cloud Data file format
VERSION 0.7
FIELDS x y z
SIZE 4 4 4
TYPE F F F
COUNT 1 1 1
WIDTH 60
HEIGHT 1
VIEWPOINT 0 0 0 1 0 0 0
POINTS 60
DATA ascii
10.64669991 27.85034943 -7.748412132
13.96269035 41.83496094 -7.944131851
14.90106964 30.54507065 -6.955430984
14.98692989 30.48339081 -6.951803207
14.51902962 30.20746994 -7.255702019
14.59885979 30.13640022 -7.249320984
14.65180969 30.01069069 -7.229753971
14.62707043 30.21637917 -7.488800049
14.6610899 30.0512104 -7.45882082
14.60632038 30.16208076 -7.684864044
24.48081017 -37.38296127 -6.114583969
24.38913918 -37.74631119 -6.149641037
24.31710052 -37.88932037 -6.160826206
24.47072029 -38.38727951 -6.229985237
24.36130905 -38.47555923 -6.232166767
24.47625923 -38.92079163 -6.292459011
25.66352081 -36.21199036 -6.34944582
25.54033089 -36.27355957 -6.346455097
25.36310959 -36.25765991 -6.329928875
25.2528801 -36.33692932 -6.330214977
25.12441063 -36.38980103 -6.325941086
24.98578072 -36.42752838 -6.319102764
24.85049057 -36.46966171 -6.313119888
24.74237061 -36.55146027 -6.314116955
24.65995026 -36.67155075 -6.321809769
24.52532959 -36.71411896 -6.316111088
24.44157982 -36.832901 -6.323660851
24.38240051 -36.98952103 -6.337765217
24.37071991 -37.72283936 -6.425232887
24.38102913 -37.99401855 -6.458851814
24.3638401 -38.22473145 -6.485492229
24.39786911 -38.53847885 -6.52623415
25.74625969 -36.09817123 -6.619612217
25.61079979 -36.14229965 -6.613225937
25.17379951 -36.22787094 -6.586050987
25.08250999 -36.05550003 -6.839334011
30.95548058 -27.89053917 -5.958404064
24.33955956 -28.93357086 -6.335810184
27.30891037 -27.80702972 -6.784221172
24.04474068 -27.01852036 -6.729586124
15.56846046 34.28376007 -7.710186958
40.58158112 -8.849308014 -3.895872116
40.63092041 -8.877570152 -4.142741203
40.76219177 -8.621731758 -4.422087193
40.73456955 -8.746539116 -4.421979904
40.7335701 -8.763845444 -4.672410011
40.78722 -8.770598412 -4.936690807
40.73353958 -8.754270554 -5.195631981
39.81319046 -9.45736599 -5.596237183
39.84476852 -9.338452339 -5.851562023
39.80727005 -9.458591461 -5.850279808
40.1617012 6.454605103 -6.069715977
39.96112823 -9.2391119 -6.120502949
39.89118958 -9.351963043 -6.114118099
39.88251877 -9.479104996 -6.117237091
40.11418152 6.721858025 -6.330646992
40.38936996 6.132586002 -6.358648777
40.01134872 -9.228115082 -6.391448021
39.99534988 -9.353750229 -6.393458843
39.95589066 -9.473902702 -6.391757011
