# .PCD v0.7 - Point Cloud Data file format
VERSION 0.7
FIELDS x y z
SIZE 4 4 4
TYPE F F F
COUNT 1 1 1
WIDTH 100
HEIGHT 1
VIEWPOINT 0 0 0 1 0 0 0
POINTS 100
DATA ascii
14.87209034 31.70553017 -7.378713131
14.94462013 31.60757065 -7.366486073
14.91716957 31.5298996 -7.552828789
14.45891953 30.08241081 -7.225500107
14.54347992 30.02207947 -7.221672058
31.26759911 -29.5762291 -5.635669231
30.97386932 -27.90711021 -5.961965084
23.6424408 -17.31501961 -5.619909763
23.58288002 -17.38281059 -5.618392944
23.58202934 -17.27331924 -5.791091919
23.52024078 -17.33918953 -5.788939953
23.47007942 -17.41360092 -5.789721966
23.41654968 -17.48551941 -5.789721966
23.66616058 -17.20970917 -5.983159065
23.54844093 -17.23480034 -5.966628075
23.47731972 -17.29360008 -5.961991787
23.43831062 -17.37605095 -5.965620995
23.36605072 -17.43380928 -5.960782051
23.30854034 -17.50247955 -5.959774017
23.70503998 -17.12957954 -6.155648232
23.58275986 -17.15158081 -6.137413025
23.45660019 -17.28087044 -6.132023811
23.38695908 -17.34052086 -6.127673149
23.31405067 -17.39756012 -6.122491837
23.26605034 -17.47311974 -6.123941898
23.20531082 -17.53911018 -6.122076988
23.17551994 -17.62858009 -6.128500938
23.38845062 -17.35050011 -6.299238205
23.31945038 -17.4104805 -6.294983864
23.24484062 -17.46608925 -6.289241791
23.19659996 -17.5414505 -6.29073
24.07319069 -17.28215981 -6.606060982
24.03350067 -17.36565018 -6.609782219
23.83806038 -17.33600998 -6.570393085
23.68004036 -17.33241081 -6.541288853
23.50968933 -17.31875992 -6.508685112
23.43214989 -17.37278938 -6.50190115
23.34119987 -17.41658974 -6.491396904
23.9713707 -17.43806076 -6.792933941
23.57445908 -17.37150002 -6.710052013
23.52730942 -17.44838905 -6.711850166
23.47680092 -17.52281952 -6.712748051
23.3130703 -17.51223946 -6.681077957
23.22114944 -17.55488014 -6.670072079
23.44936943 -17.39312935 -6.861676216
23.43567085 -17.4946804 -6.873407841
23.24404907 -17.57476044 -6.848563194
23.48275948 -17.42045975 -7.055226803
23.44088936 -17.50114059 -7.058764935
23.32840919 -17.64112091 -7.057350159
23.30124092 -17.73320961 -7.06560421
30.93889046 8.862980843 -6.379858971
30.44271088 9.856505394 -6.546402931
30.45974922 9.758878708 -6.543581009
30.46526909 9.657689095 -6.538340092
30.48167038 9.560073853 -6.535518169
30.47607994 9.353322983 -6.521810055
30.48119926 9.252667427 -6.516768932
30.62615967 8.989663124 -6.529872894
30.75330925 8.924592972 -6.551240921
30.82102966 8.841814041 -6.559909821
30.85648918 8.74961853 -6.561724186
30.37463951 9.935246468 -6.730086803
30.36775017 9.829959869 -6.721796989
30.37632942 9.729883194 -6.717031002
30.4032402 9.635757446 -6.71641016
30.40745926 9.534534454 -6.710813999
30.4160099 9.43482399 -6.706254959
30.41581917 9.332569122 -6.699831009
30.46032906 9.142109871 -6.697136879
30.56090927 8.968257904 -6.707084179
30.60519028 8.87936306 -6.710813999
30.77228928 8.621584892 -6.729878902
30.24884987 9.988803864 -6.894342899
30.25984955 9.889580727 -6.889875889
30.31884956 9.600922585 -6.882856846
30.45051956 8.927845001 -6.867544174
30.47588921 8.833838463 -6.867117882
30.3263607 9.920752525 -7.115921974
30.16365051 9.663032532 -7.063405037
30.24058914 9.585485458 -7.074564934
29.93390083 9.078615189 -7.354443073
40.87770844 -8.794857979 -3.657367945
40.65618896 -8.883091927 -4.145341873
40.70055008 -8.739232063 -4.418254852
40.76465988 -8.770535469 -4.676004887
40.81148911 -8.775816917 -4.939651012
39.82413101 -9.202192307 -5.589688778
39.76871109 -9.31799984 -5.585869789
39.77270889 -9.447749138 -5.590507984
39.78451157 -9.195659637 -5.838456154
39.76959991 -9.320836067 -5.84044981
39.72925949 -9.440057755 -5.838740826
40.20243073 -9.682879448 -5.913103104
39.93029022 -9.231984138 -6.11575222
39.89889908 -9.353768349 -6.115305901
39.86809158 -9.475675583 -6.115008831
39.99113083 -9.223451614 -6.388198853
39.95783997 -9.344975471 -6.387424946
39.92512894 -9.466607094 -6.386806011
