# .PCD v0.7 - Point Cloud Data file format
VERSION 0.7
FIELDS x y z
SIZE 4 4 4
TYPE F F F
COUNT 1 1 1
WIDTH 61
HEIGHT 1
VIEWPOINT 0 0 0 1 0 0 0
POINTS 61
DATA ascii
14.93929005 30.62340927 -6.973372936
14.96877956 30.44647026 -6.94333601
14.59587002 30.13025093 -7.247831821
14.66938019 30.04668999 -7.238473892
14.74635983 30.70265961 -7.598649979
14.61686993 30.19529915 -7.483548164
14.66493988 30.05911064 -7.460790157
14.68894005 30.8132 -7.828391075
14.64369965 30.23925972 -7.704629898
24.75690079 -38.83163071 -5.746918201
24.48768044 -39.45368958 -6.083313942
24.48267937 -37.63726044 -6.144048214
24.29022026 -37.59320831 -6.124542236
24.37755966 -37.98353958 -6.176239967
24.46645927 -38.38059998 -6.228892803
24.43498039 -38.59191132 -6.251128197
24.38216019 -39.3042717 -6.330379963
25.61029053 -36.13689041 -6.336196899
25.47422981 -36.17967987 -6.329928875
25.31999016 -36.19601822 -6.319102764
25.20261002 -36.26459122 -6.317535877
25.05018044 -36.28227997 -6.307137012
24.89843941 -36.30018997 -6.296879768
24.75573921 -36.33060074 -6.288901806
24.65693092 -36.42523956 -6.292179108
24.56217957 -36.52616882 -6.296595097
24.44231033 -36.58983994 -6.29460001
24.36714935 -36.72072983 -6.304286957
24.34481049 -36.93249893 -6.327935219
24.34851074 -37.18587875 -6.358705997
24.42264938 -37.54998016 -6.408422947
24.36211967 -37.70952988 -6.422954082
24.36338997 -37.96652985 -6.454151154
24.91534042 -36.09170914 -6.547142982
24.75750923 -36.09947968 -6.534669876
24.67114067 -36.21121979 -6.541203022
24.5582695 -36.28427887 -6.540758133
24.28428078 -37.09273911 -6.619018078
31.30072975 -29.60757065 -5.641681194
30.95989037 -27.89451981 -5.959259033
24.64201927 -26.68400955 -6.758283138
24.02840042 -27.00016022 -6.724987984
15.56723976 34.28108978 -7.709581852
40.70825958 -8.758399963 -3.642051935
40.63410187 -8.860761642 -3.900963068
40.59397888 -8.86950016 -4.138940811
40.75791168 -8.751549721 -4.424534798
40.86666107 -8.792480469 -4.687799931
40.91342926 -8.797734261 -4.952084064
39.92110062 -9.353708267 -5.607421875
39.84498978 -9.464920998 -5.600738049
40.78115082 -8.769293785 -5.965098858
39.81882095 -9.46133709 -5.851988792
39.98714066 -9.245125771 -6.124513149
39.94895935 -9.365504265 -6.123027802
39.90850067 -9.48527813 -6.121245861
39.99401855 -9.224118233 -6.388662815
39.95975876 -9.345424652 -6.38773489
39.93281937 -9.468431473 -6.38804388
40.04700089 -9.253692627 -6.633088112
40.00400925 -9.373133659 -6.630683899
