# .PCD v0.7 - Point Cloud Data file format
VERSION 0.7
FIELDS x y z
SIZE 4 4 4
TYPE F F F
COUNT 1 1 1
WIDTH 58
HEIGHT 1
VIEWPOINT 0 0 0 1 0 0 0
POINTS 58
DATA ascii
-19.4113903 -4.488574982 -7.013552189
-19.41496086 -4.426695824 -7.009880066
-19.42703056 -4.304223061 -7.004539013
-19.27066994 -4.205935001 -7.063208103
-19.24300957 -4.138091087 -7.048295975
-19.24225044 -4.014561176 -7.038805962
10.58036041 27.67683029 -7.699883938
14.98649979 30.48250961 -6.951601028
14.90200996 31.76930046 -7.393632889
14.91534996 31.54566002 -7.351980209
14.87849045 31.69935036 -7.582604885
14.55370045 30.04319 -7.226776123
25.74283981 -42.07186127 -6.753106117
25.59306908 -42.11677933 -6.747650146
31.31609917 -29.98833084 -5.677753925
30.94223976 -27.87862015 -5.955840111
27.41106033 -27.91103935 -6.809742928
22.07905006 8.28350544 -6.993637085
22.35401917 7.843324184 -7.025938988
22.01115036 8.495743752 -7.140869141
22.03174973 8.426124573 -7.139122009
22.03960991 8.351713181 -7.13329792
22.01944923 8.266910553 -7.118445873
22.04919052 8.200984001 -7.119903088
22.06526947 8.129991531 -7.116991043
22.02338982 8.498531342 -7.297875881
22.02795029 8.422739983 -7.29075098
22.0376091 8.349029541 -7.285407066
22.05238914 8.27735424 -7.281845093
22.07232094 8.207662582 -7.280063152
22.09291077 8.138256073 -7.278579235
22.1007309 8.064219475 -7.272937775
22.0625 7.973658085 -7.252157211
41.03028107 -11.35484982 -5.309803009
40.97901154 -11.47612953 -5.307683945
40.95602036 -11.60531044 -5.309305191
40.9829483 -11.33356953 -5.567314148
40.93748093 -11.45631027 -5.565876007
40.8935585 -11.57942009 -5.564700127
40.85308075 -11.70345974 -5.564045906
40.90871048 -11.59414959 -5.816398144
40.89960098 -11.7272501 -5.820217133
41.10245895 -11.37981033 -6.099720001
40.77254105 -8.772229195 -3.647861958
40.68954086 -8.872850418 -3.906337023
40.6697998 -8.886064529 -4.146741867
40.73554993 -8.746747971 -4.422087193
39.97470856 -9.236987114 -5.610969067
39.88835907 -9.475223541 -5.606875896
39.85813904 -9.597323418 -5.606739998
39.86597061 -9.343420982 -5.854695797
39.83422852 -9.464997292 -5.854269028
39.96112823 -9.2391119 -6.120502949
39.91141129 -9.356702805 -6.117237091
39.88444138 -9.479561806 -6.117534161
39.98920822 -9.223007202 -6.387888908
39.96456909 -9.346549034 -6.388507843
39.93090057 -9.467975616 -6.38773489
