# .PCD v0.7 - Point Cloud Data file format
VERSION 0.7
FIELDS x y z
SIZE 4 4 4
TYPE F F F
COUNT 1 1 1
WIDTH 384
HEIGHT 1
VIEWPOINT 0 0 0 1 0 0 0
POINTS 384
DATA ascii
14.97397041 30.45701981 -6.945755005
14.55585003 30.28409004 -7.274206161
14.57542992 30.0880394 -7.237623215
14.68610001 30.08093071 -7.246768951
24.42099953 -36.55308914 -6.014733791
24.31838989 -36.88751984 -6.04528904
24.40056992 -38.01939011 -6.182106018
25.5904808 -35.41347885 -6.24986887
25.25484085 -35.17583847 -6.193883896
24.45774078 -36.13098145 -6.241036892
24.40255928 -36.28879929 -6.255424976
24.38348007 -36.50177002 -6.279356956
24.3386898 -36.67784882 -6.296879768
24.32084084 -36.89614105 -6.321667194
24.3604393 -37.20410156 -6.361839771
24.36058998 -37.45455933 -6.392039776
25.46106911 -35.23894882 -6.489822865
25.29689026 -35.23897934 -6.475418091
25.15649986 -35.27133942 -6.467102051
25.04989052 -35.35076904 -6.467547894
24.84226036 -35.28675842 -6.441709042
24.73727989 -35.36766815 -6.442599773
24.62414932 -35.43690109 -6.441411972
24.46050072 -35.66643143 -6.455815792
24.42668915 -35.85245132 -6.47601223
24.32267952 -35.93622971 -6.477645874
24.29564095 -36.13460159 -6.500069141
24.31814003 -36.40879059 -6.536155224
24.30036926 -36.62496185 -6.561697006
24.26734924 -36.81988907 -6.583377838
24.2165699 -36.98931885 -6.600454807
24.28359032 -37.34115982 -6.650203228
24.92114067 -35.12931824 -6.706129074
24.8422699 -35.24679947 -6.714018822
24.68925095 -35.25891113 -6.701797009
24.58266068 -35.33692932 -6.702260971
24.47862053 -35.41867828 -6.703497887
24.36984062 -35.49361038 -6.703497887
24.26585007 -35.57556152 -6.704891205
31.39579964 -29.69750977 -5.658934116
30.9760704 -27.90909004 -5.962392807
24.85540962 -26.91509056 -6.817146778
24.09800911 -26.91167068 -6.721309185
24.01925087 -26.98987961 -6.722412109
24.47373009 -26.84313011 -6.975618839
24.34379005 -26.86569977 -6.961966991
28.91427994 6.398214817 -4.039285183
28.90958023 6.304201126 -4.03587389
28.91426086 6.212357044 -4.033827782
28.91864014 6.120543003 -4.03178215
28.90237045 6.024516106 -4.026872158
28.94424057 5.387430191 -4.015550137
28.85178947 6.475183964 -4.21730423
28.8589592 6.383859158 -4.215452194
28.8619709 6.291707039 -4.213030815
28.87435913 6.201673985 -4.212032795
28.87388039 6.108962059 -4.20918417
28.85470009 6.012475014 -4.203629017
28.60549927 5.413156986 -4.151631832
28.61030006 5.323197842 -4.149921894
28.62552071 5.235219002 -4.149779797
28.64632034 5.148249149 -4.150492191
28.64637947 5.057584763 -4.14821291
28.75201988 6.450679779 -4.386322021
28.84119034 6.3778162 -4.397015095
28.85386086 6.287827969 -4.395975113
28.80920029 6.185573101 -4.386174202
28.58519936 6.045785904 -4.348899841
28.47291946 5.930830002 -4.32885313
28.45417023 5.835896969 -4.323209763
28.43218994 5.740548134 -4.317121983
28.41474915 5.646351814 -4.311776161
28.42127037 5.557063103 -4.31014204
28.44301987 5.289999962 -4.305836201
28.45326996 5.201645851 -4.304944992
28.47978973 5.026102066 -4.30420208
28.69374084 6.454445839 -4.566947937
28.81468964 6.388835907 -4.583192825
28.83319092 6.300192833 -4.583037853
28.78476906 6.197151184 -4.572207928
28.31550026 5.914583206 -4.491139889
28.27061081 5.814750195 -4.48108387
28.25345039 5.720932007 -4.475513935
28.26506042 5.633067131 -4.47458601
28.23567009 5.537199974 -4.467160225
28.88138962 6.390936852 -4.762773037
28.86709976 6.294939995 -4.757164955
28.89883041 6.209042072 -4.75924778
28.66473007 6.066806793 -4.71726799
28.90563011 6.394183159 -4.952424049
28.90295029 6.30064106 -4.948599815
28.9337101 6.21442318 -4.950594902
28.50886917 6.031730175 -4.874118805
27.99967003 5.655262947 -4.777194023
27.95014954 5.556067944 -4.765721798
27.93707085 5.464424133 -4.760568142
27.93239975 5.374588966 -4.756910801
27.93034935 5.285384178 -4.753752232
27.94157982 5.198769093 -4.752921104
27.94478989 5.110713959 -4.750759125
27.95549011 5.024085045 -4.749927998
27.97562027 4.939151764 -4.750759125
27.99648094 4.854310989 -4.751757145
28.90436935 6.402367115 -5.14392519
28.90463066 6.309456825 -5.140476227
28.92000008 6.219921112 -5.139787197
28.84065056 6.110338211 -5.122197151
27.93840981 5.829642773 -4.957511902
27.96002007 5.744695187 -4.958201885
27.82472038 5.539172173 -4.927852154
27.81064987 5.447721004 -4.922334194
27.80886078 5.358830929 -4.919056892
27.81645966 5.271838188 -4.917504787
27.83444023 5.186834812 -4.917850018
27.85119057 5.101593018 -4.918022156
27.94133949 4.588239193 -4.918194771
27.97863007 4.50625515 -4.922334194
27.95730019 4.414864063 -4.916124821
28.89775085 6.396671772 -5.318356991
27.68228912 5.772265911 -5.079504013
27.69119072 5.685530186 -5.077900887
27.69403076 5.597623825 -5.075229168
27.71493912 5.513401031 -5.075942039
27.72978973 5.427968979 -5.075584888
27.74051094 5.341753006 -5.074516773
27.68812943 5.243625164 -5.061871052
27.75052071 5.16729784 -5.070419788
27.79237938 5.086918831 -5.075229168
27.7487793 4.991005898 -5.064363956
27.76589012 4.90619278 -5.064720154
27.79438972 4.823339939 -5.067214012
27.82652092 4.741018772 -5.070419788
27.84771919 4.656762123 -5.071667194
27.94772911 4.409461021 -5.082354069
27.97641945 4.150462151 -5.080393791
27.96043968 3.972910881 -5.072914124
28.89629936 6.399522781 -5.499688148
28.91194916 6.31000185 -5.498951912
28.93021011 6.221065044 -5.498767853
27.67067909 5.067603111 -5.225416183
28.89691925 6.392258167 -5.676033974
28.9202404 6.304409981 -5.676793098
28.93560028 6.214828968 -5.676033974
28.92783928 6.396979809 -5.869919777
28.94445038 6.307573795 -5.86933279
28.96270943 6.218537807 -5.869137764
28.91352081 6.405455112 -6.05573082
28.93494987 6.317136765 -6.056135178
28.95420074 6.228335857 -6.056135178
27.53644943 5.219882011 -5.728952885
27.55137062 5.135197163 -5.728751183
27.58337975 5.053647041 -5.732178211
27.60646057 4.970386982 -5.733790874
27.81131935 4.392917156 -5.755562782
27.83917999 4.309819221 -5.75858593
27.83387947 4.221600056 -5.754755974
27.8476696 4.136331081 -5.754958153
27.85924911 4.050734997 -5.754755974
27.87252045 3.965383053 -5.754958153
27.88165092 3.879446983 -5.754353046
27.42379951 5.809184074 -5.898478031
27.4309597 5.722824097 -5.896197796
27.45606041 5.64021492 -5.897856236
27.49336052 5.384644985 -5.894955158
27.5410099 5.043858051 -5.891431808
27.59295082 4.965923786 -5.89930582
27.74020958 4.55428791 -5.915263176
27.80077934 4.214557171 -5.916714191
27.6713295 4.108129025 -5.886250973
27.38567924 5.794077873 -6.053369045
27.35454941 5.699865818 -6.042521954
27.36042023 5.6135602 -6.039969921
27.37080956 5.528238773 -6.038481236
27.37421989 5.441573143 -6.035502911
27.38887024 5.357190132 -6.035078049
27.40229988 5.272583008 -6.034440041
27.41546059 5.187942982 -6.033802032
27.42933083 5.103452206 -6.033376217
27.44581985 5.019452095 -6.033588886
27.45820045 4.934707165 -6.032950878
27.46648026 4.849254131 -6.031462193
27.48797035 4.766133785 -6.032950878
27.50728035 4.682600021 -6.034014225
27.52536964 4.598831177 -6.034864902
27.54610062 4.515469074 -6.036354065
27.56753922 4.43217802 -6.038054943
27.59837914 4.350319862 -6.041883945
27.60483932 4.264585018 -6.040394783
27.63035011 4.181776047 -6.043159962
27.64981079 4.097990036 -6.044649124
27.35275078 5.795041084 -6.230558872
27.33218956 5.703123093 -6.221806049
27.39447975 5.628474236 -6.232089996
27.35519028 5.532987118 -6.219180107
27.34811974 5.444272041 -6.213708878
27.36182022 5.359780788 -6.213053226
27.3743 5.275072098 -6.2121768
27.39035034 5.191063881 -6.2121768
27.40518951 5.106828213 -6.211957932
27.42457008 5.023429871 -6.212833881
27.53742027 4.521893978 -6.218523979
27.53383064 4.434596062 -6.214583874
27.55694008 4.351624012 -6.216773033
27.3957901 5.800298214 -6.414914131
27.35430908 5.703892231 -6.400988102
27.40121078 5.363666058 -6.396047115
27.37830925 5.27202177 -6.386837006
27.39339066 5.187819958 -6.386612892
27.40630913 5.103219032 -6.385939121
27.42374992 5.019464016 -6.386387825
27.43902016 4.935306072 -6.386387825
27.45787048 4.851778984 -6.38728714
27.48126984 4.769015789 -6.389307976
27.51498032 4.687953949 -6.393799782
27.54653931 4.606410027 -6.397842884
27.61471939 4.356934071 -6.404131889
27.7140007 3.937903881 -6.412443161
27.75587082 3.85701704 -6.419405937
27.39199066 5.797451973 -6.578714848
27.36391068 5.703855991 -6.567671776
27.36985016 5.617529869 -6.564911842
27.37837029 5.531799793 -6.562840939
27.38088989 5.444931984 -6.559391022
27.37741089 5.35697794 -6.554560184
27.37747002 5.269834042 -6.550649166
27.38489914 5.184185982 -6.548577785
27.39207077 5.098544121 -6.546507835
27.41810989 5.01640892 -6.549037933
27.4419899 4.93381691 -6.551108837
27.47999954 4.853664875 -6.556630135
27.49188995 4.768836021 -6.555940151
27.51214027 4.685450077 -6.557320118
27.54174995 4.603589058 -6.561000824
27.56438065 4.520486832 -6.563070774
27.5906105 4.437909126 -6.566061974
27.61660004 4.355212212 -6.569053173
27.62789917 4.270166874 -6.568593025
27.38945961 5.619520187 -6.744886875
27.42762947 5.364770889 -6.741821766
27.45377922 4.847012043 -6.72507906
27.46468925 4.762097836 -6.724134922
27.49258041 4.68009901 -6.727437019
27.51351929 4.596850872 -6.729086876
27.53228951 4.513206005 -6.730267048
27.82587051 3.949754 -6.780025005
27.34445953 5.695728779 -6.903263092
27.45972061 5.631897926 -6.92811203
27.47686958 5.547626019 -6.92811203
27.40143967 5.444951057 -6.90471077
27.42848969 5.362907887 -6.907363892
27.40250015 5.009506226 -6.884686947
27.50942993 4.941888809 -6.907846928
27.50152969 4.853418827 -6.902057171
27.5134201 4.768526077 -6.901332855
27.52791977 4.684092999 -6.901332855
27.54216003 4.599617004 -6.901332855
27.52453995 4.509916782 -6.893372059
27.82302094 3.860287905 -6.942585945
20.81848907 0.07210577279 -6.558866024
20.79668999 0.008226106875 -6.551916122
19.11624908 -1.702803016 -6.402404785
19.05430031 -1.756221056 -6.38330698
18.97071075 6.080527782 -6.883997917
18.16698074 6.94824791 -6.845981121
18.14942932 6.877785206 -6.831293106
18.09896088 6.795237064 -6.804255009
18.16390038 6.756106853 -6.820944786
18.20223045 6.706865788 -6.827620983
18.16959 6.63160181 -6.807592869
18.46484947 6.483698845 -6.888373852
18.48464966 6.427019119 -6.888373852
18.56311035 6.390526772 -6.910406113
18.62010002 6.346315861 -6.924426079
18.70557976 6.311457157 -6.949127197
18.73826981 6.258518219 -6.954133987
18.80661011 6.217270851 -6.972494125
18.82559013 6.159543991 -6.972494125
19.01676941 -3.839152098 -6.828289032
18.17045975 6.884016991 -6.95746994
18.39656067 6.521468163 -6.988987923
18.4937191 6.492106915 -7.018473148
18.51888084 6.437191963 -7.020505905
18.53319931 6.378509998 -7.018473148
18.57316971 6.328598976 -7.026267052
18.68074989 6.301356792 -7.059819221
18.65538025 6.229116917 -7.042872906
18.52643013 -2.803793907 -6.707698822
18.51959991 -2.860907078 -6.708376884
18.50355911 -2.974786043 -6.709054947
19.07028961 5.91753912 -7.272933006
19.75749969 -1.270316005 -7.211015224
18.53853035 -2.62963891 -6.817492962
18.76789093 -3.669066906 -6.963687897
18.88272095 -3.751693964 -7.01081419
18.90424919 -3.816297054 -7.023198128
18.66012955 -3.527532101 -7.028049946
18.68511009 -3.591660976 -7.041656971
18.78346062 -3.670350075 -7.083176136
18.74177933 -3.721936941 -7.071661949
18.05054092 6.591725826 -7.234487057
18.50481987 6.374074936 -7.369056225
18.5092392 6.312141895 -7.363035202
18.66913986 -3.527709961 -7.152328968
18.13631058 6.814744949 -7.418149948
18.15101051 6.756793022 -7.415635109
18.1471405 6.692035198 -7.405572891
26.50595093 27.32535934 -5.440576077
26.62285042 27.27791023 -5.447412968
26.71750069 27.20741081 -5.449693203
26.86833 27.19360924 -5.46351099
26.97744942 27.13702011 -5.468781948
27.12148094 27.11500931 -5.481174946
27.25439072 27.08120918 -5.491290092
27.38171005 27.04129028 -5.500265121
27.48431969 26.97657013 -5.504252911
27.58963013 26.91423988 -5.508811951
26.68831062 27.17420006 -5.680943966
26.82506943 27.1463604 -5.692378998
26.96471024 27.12074089 -5.704407215
27.09604073 27.08613014 -5.714653015
27.22460938 27.04817009 -5.724306107
27.34193993 26.99856949 -5.731583118
27.46982002 26.95889091 -5.741086006
27.57080078 26.8924408 -5.744946957
27.69791031 26.85110092 -5.754302979
26.33156013 27.17149925 -5.886473179
26.49341965 27.17122078 -5.904109955
26.64170074 27.15611076 -5.918653011
26.80261993 27.15299034 -5.935979843
26.90111923 27.08605003 -5.939383984
27.04693985 27.0662899 -5.953308105
27.1935997 27.04657936 -5.967387199
27.32282066 27.00885963 -5.977597237
27.41542053 26.93460083 -5.979763985
27.54740906 26.89867973 -5.990592957
27.63264084 26.81678963 -5.991211891
26.5189991 27.1749897 -6.12469101
26.6319809 27.12379074 -6.13158083
26.76363945 27.09111023 -6.142796993
26.92386055 27.08658028 -6.160582066
27.04244041 27.03944969 -6.168754101
27.17988014 27.01062965 -6.181251049
27.31459045 26.97843933 -6.193108082
27.44020081 26.93670082 -6.202881813
27.55661964 26.88546944 -6.210573196
27.66589928 26.82691002 -6.216660976
26.27556992 27.25466919 -6.343955994
26.38515091 27.20082092 -6.350274086
26.50016022 27.15221024 -6.357922077
26.61235046 27.10033035 -6.364903927
26.73764992 27.06134033 -6.375045776
26.91300964 27.07220078 -6.397157192
27.01964951 27.01320076 -6.402810097
27.17514038 27.00247002 -6.420100212
27.30977058 26.97023964 -6.432403088
27.41913033 26.91258049 -6.43872118
27.52626991 26.85243034 -6.44453907
27.65242004 26.81040955 -6.454846859
26.36675072 27.19734955 -6.592635155
26.47344971 27.14030075 -6.598497868
26.5952301 27.09832954 -6.608154774
26.71422958 27.05304909 -6.617122173
26.8817997 27.0562191 -6.638160229
27.12136078 27.13036919 -6.676959991
27.17583084 27.01856041 -6.669889927
27.29713058 26.97312927 -6.679374218
27.40645981 26.9154892 -6.685926914
27.52907944 26.87050056 -6.695755959
40.66444016 -8.748970985 -3.638091087
40.62923813 -8.859701157 -3.900491953
40.62799835 -8.876933098 -4.142440796
40.69895935 -8.608356476 -4.415167809
40.71511841 -8.759874344 -4.670276165
39.76980972 -9.447061539 -5.590097904
39.74449921 -9.569957733 -5.590643883
39.77838135 -9.451726913 -5.846005917
39.81174088 -9.588785172 -5.855266094
39.97653961 -9.242675781 -6.122879982
39.93452072 -9.362118721 -6.120800018
39.9007988 -9.483448982 -6.12005806
39.88882065 -9.609987259 -6.122731209
40.01808929 -9.229669571 -6.392530918
39.98669815 -9.351724625 -6.392066002
39.96261978 -9.475498199 -6.392839909
