# .PCD v0.7 - Point Cloud Data file format
VERSION 0.7
FIELDS x y z
SIZE 4 4 4
TYPE F F F
COUNT 1 1 1
WIDTH 114
HEIGHT 1
VIEWPOINT 0 0 0 1 0 0 0
POINTS 114
DATA ascii
8.091404915 -15.46751976 -6.026947021
7.987257957 -15.49925041 -6.020051003
8.17762661 -15.40466022 -6.134305
8.102646828 -15.37714005 -6.113275051
8.043638229 -15.37936974 -6.104261875
7.979046822 -15.3705101 -6.090909004
7.908974171 -15.35050011 -6.073217869
7.861413002 -15.37384987 -6.072884083
7.805678844 -15.38109016 -6.066207886
7.741919994 -15.37213039 -6.053188801
7.688402176 -15.38315964 -6.048182011
7.597618103 -15.31884003 -6.013465881
7.551001072 -15.34292984 -6.013800144
7.525401115 -15.41007042 -6.03115797
7.922449112 -15.26476955 -6.153254986
7.853609085 -15.24635029 -6.135972023
7.793949127 -15.24524021 -6.125803947
7.700743198 -15.17763042 -6.08886385
7.626640797 -15.14655972 -6.066834927
7.55784893 -15.12528038 -6.048872948
7.860620975 -15.1424799 -6.208292007
7.802515984 -15.14398003 -6.199004173
7.732078075 -15.12102985 -6.179739952
7.652080059 -15.07853985 -6.152565002
7.593111992 -15.07678032 -6.14224577
7.508200169 -15.02274036 -6.110599041
7.357001781 -14.94888973 -6.061752796
7.3020401 -14.95283031 -6.054184914
7.23893404 -14.93966961 -6.039738178
7.174348831 -14.92288971 -6.02391386
7.132575989 -14.95330048 -6.027353764
7.080640793 -14.96238041 -6.022193909
7.015947819 -14.94408989 -6.006027222
6.972445011 -14.97064972 -6.008090019
6.922544956 -14.98344994 -6.00465107
6.85072279 -14.94828033 -5.981947899
6.807161808 -14.97434998 -5.984012127
6.755400181 -14.98233032 -5.978851795
6.705953121 -14.99526978 -5.975756168
7.833331108 -15.08675957 -6.286639214
7.779280186 -15.09572983 -6.280358791
7.693665981 -15.04277039 -6.248260021
7.637722015 -15.04708004 -6.240234852
7.560739994 -15.00934982 -6.214766026
7.480289936 -14.96374035 -6.186155796
7.404356956 -14.92617035 -6.161035061
7.327897072 -14.88659954 -6.13521719
7.24599123 -14.83491039 -6.104514122
7.171421051 -14.7972002 -6.079741955
7.110147953 -14.78619003 -6.066133976
7.044570923 -14.76564026 -6.048689842
6.984801769 -14.75669003 -6.036128998
6.868001938 -14.74320984 -6.013102055
6.812909126 -14.74293995 -6.004380226
6.76335001 -14.75440025 -6.000542164
6.714948177 -14.76826 -5.997749805
6.666141033 -14.78110027 -5.994609833
6.618082047 -14.7954998 -5.99216795
6.573039055 -14.81659031 -5.992516994
6.53736496 -14.85898972 -6.001587868
8.715158463 -15.8197403 -6.797139168
7.832563877 -15.08185005 -6.393078804
7.771690845 -15.0775404 -6.381039143
7.708787918 -15.06884003 -6.367228031
7.622306824 -15.01319981 -6.333586216
7.379071236 -14.87160015 -6.244346142
7.308628082 -14.84383011 -6.223097801
7.224880219 -14.78802967 -6.190164089
7.150108814 -14.74954033 -6.16466713
7.063889027 -14.68628025 -6.128900051
7.000274181 -14.66905975 -6.112609863
6.74793911 -14.59850025 -6.047804832
6.685192108 -14.58003044 -6.031515121
6.633849144 -14.58600044 -6.025495052
6.58753109 -14.60286999 -6.024077892
6.532005787 -14.59910965 -6.014163017
5.494785786 -15.04615974 -6.023369789
7.766282082 -15.06389999 -6.48385191
7.709403992 -15.06688976 -6.474868774
7.6361022 -15.03722 -6.451870918
7.130030155 -14.70499039 -6.250638008
7.05211401 -14.65867043 -6.221529961
14.97914982 30.46756935 -6.948174
12.36133957 34.22914886 -7.669455051
12.46864033 34.19749069 -7.670905113
25.45013046 -34.54500961 -7.195334911
25.31897926 -34.58871078 -7.188187122
25.2052002 -34.6558609 -7.186025143
25.14150047 -34.79217148 -7.198328018
23.88582993 -30.5963707 -6.756456852
31.19395065 -29.68843079 -5.638805866
31.21013069 -29.88685036 -5.658411026
24.31315041 -29.07904053 -6.113955975
24.2541008 -29.1899395 -6.121646881
24.16316986 -29.26268959 -6.121326923
24.39859962 -29.00374985 -6.351272106
24.30064964 -29.06788063 -6.348944187
27.37723923 -27.87660027 -6.801292896
24.09178925 -27.07139015 -6.74283123
24.01317978 -27.15032959 -6.744119167
40.70145035 -8.756933212 -3.6414361
40.60491943 -8.854398727 -3.898134947
40.58425903 -8.867377281 -4.13793993
39.78125 -9.32093811 -5.587643147
39.76403046 -9.445688248 -5.589280128
39.84669876 -9.338904381 -5.851847172
39.77838135 -9.451726913 -5.846005917
39.96498108 -9.240002632 -6.121098042
39.91429901 -9.357379913 -6.11768198
39.90753174 -9.485049248 -6.121098042
39.88304901 -9.608597755 -6.12184
39.99497986 -9.224340439 -6.388817787
39.9626503 -9.346099854 -6.388198853
39.93378067 -9.468659401 -6.388198853
