# .PCD v0.7 - Point Cloud Data file format
VERSION 0.7
FIELDS x y z
SIZE 4 4 4
TYPE F F F
COUNT 1 1 1
WIDTH 211
HEIGHT 1
VIEWPOINT 0 0 0 1 0 0 0
POINTS 211
DATA ascii
14.96405983 30.88508987 -6.805883884
14.54992962 30.27176094 -7.271227837
14.54858971 30.03263092 -7.224224091
14.70104027 30.36919975 -7.526875019
14.68533039 30.32519913 -7.726642132
30.96544075 -26.88694 -6.119613171
24.06565094 -27.0420208 -6.735473156
19.47036934 -2.21193409 -6.171138763
19.43791962 -2.268675089 -6.16298008
19.40909958 -2.325690985 -6.156029224
19.37066078 -2.381388903 -6.146056175
19.35190964 -2.439374924 -6.142429829
19.31785965 -2.495316029 -6.133967876
19.26515007 -3.031399012 -6.141522884
19.26610947 -3.092150927 -6.144846916
19.28475952 -3.155862093 -6.153913021
19.26370049 -3.213129997 -6.150287151
19.32140923 -3.283713102 -6.172046185
19.30279922 -3.341511965 -6.169325829
19.18972969 -2.304433107 -6.201375008
19.19107056 -2.364341974 -6.20414114
19.16579056 -2.420943975 -6.198300838
19.15638924 -2.479487896 -6.197687149
19.10788918 -3.011709929 -6.206600189
19.1164093 -3.073187113 -6.212440014
19.13694 -3.136744022 -6.22227478
19.14505959 -3.198419094 -6.228115082
19.12297058 -3.255064964 -6.224119186
19.14761925 -3.380279064 -6.238873005
19.0752697 -2.226480961 -6.287693977
19.05703926 -2.283636093 -6.283936977
18.99337959 -2.335134029 -6.265157223
18.98329926 -2.393038034 -6.264217854
19.02157021 -3.413311958 -6.327444077
19.82172966 -1.888316035 -6.643992901
19.67810059 -1.935567975 -6.597520828
19.60038948 -1.988656998 -6.573330879
18.94598007 -3.464829922 -6.425323009
19.55196953 -1.924800038 -6.665772915
19.50737 -1.980857015 -6.652526855
18.9446907 -2.158919096 -6.468040943
18.89473915 -2.211970091 -6.453178883
18.84465027 -2.26473403 -6.438316822
18.83974075 -3.447036028 -6.49711895
18.80953026 -3.501182079 -6.490334988
18.81916046 -3.562745094 -6.497443199
19.72566032 -1.87551403 -6.84689188
19.56094933 -1.920434952 -6.791397095
19.39426994 -1.964172959 -6.735245228
18.81967926 -2.139636993 -6.543148041
18.79051018 -2.194736958 -6.535266876
18.74805069 -2.248104095 -6.522789001
18.70356941 -2.301000118 -6.509654045
18.65518951 -2.353173018 -6.495204926
18.6534996 -2.411120892 -6.49717617
18.65895081 -2.528320074 -6.504399776
18.64609909 -2.701570034 -6.508339882
18.68526077 -2.941782951 -6.534282207
18.65460014 -3.113167048 -6.533297062
18.68725967 -3.236594915 -6.551684856
18.70980072 -3.299650908 -6.563179016
18.73027039 -3.362541914 -6.574015141
18.73101997 -3.422025919 -6.577954769
18.75015068 -3.484997988 -6.58846283
19.74386978 -1.87925005 -6.981505871
19.2714901 -1.953652024 -6.817606926
18.93391991 -2.03685689 -6.701776028
18.89479065 -2.091304064 -6.69009304
18.84052086 -2.143825054 -6.673069
18.7215004 -2.188476086 -6.633011818
18.69037056 -2.242980957 -6.624332905
18.65439034 -2.296739101 -6.613985062
18.62668991 -2.351360083 -6.606640816
18.60536003 -2.406680107 -6.601634026
18.58761024 -2.462387085 -6.597961903
18.5696907 -2.518007994 -6.59428978
18.55908012 -2.574578047 -6.593288898
18.55015945 -2.631371975 -6.592955112
18.56118965 -2.865720034 -6.608977795
18.59263039 -3.046036005 -6.630008221
18.64389992 -3.289860964 -6.662386894
18.69680977 -3.358381033 -6.685085773
18.70310974 -3.418777943 -6.691093922
18.70087051 -3.477694035 -6.694097996
18.72360992 -3.600923061 -6.710121155
19.49476051 -1.917531013 -7.014406204
18.97171974 -1.983682036 -6.829364777
18.71055984 -2.130635023 -6.741590023
18.59432983 -2.348877907 -6.709393978
18.55344009 -2.401565075 -6.697193146
18.5413208 -2.457856894 -6.695498943
18.52531052 -2.513591051 -6.692449093
18.52216911 -2.571059942 -6.694142818
18.51977921 -2.628667116 -6.696177006
18.51907921 -2.686553001 -6.698887825
18.5172596 -2.744322062 -6.70126009
18.5227108 -2.803231001 -6.706344128
18.5261097 -2.861912012 -6.710749149
18.52746964 -2.920347929 -6.714477062
18.53327942 -2.979564905 -6.719900131
18.54541016 -3.039911032 -6.727694988
18.55363083 -3.099739075 -6.734134197
18.56814003 -3.160752058 -6.742945194
18.57781982 -3.221079111 -6.750061989
18.61696053 -3.286730051 -6.768023968
18.6364193 -3.349155903 -6.778869152
18.65475082 -3.41156292 -6.789374828
18.67285919 -3.474113941 -6.799880981
18.70278931 -3.539083004 -6.814792156
18.71216965 -3.600357056 -6.822247982
18.76567078 -3.670391083 -6.845971107
18.79314995 -2.021606922 -6.882506847
18.77379036 -2.077807903 -6.877690792
18.69923019 -2.127648115 -6.85258007
18.64878082 -2.179883003 -6.836411953
18.61869049 -2.234289885 -6.827813148
18.58473015 -2.288074017 -6.817837238
18.55805969 -2.342612028 -6.810614109
18.54519081 -2.398813009 -6.808548927
18.52658081 -2.454217911 -6.804421902
18.51152039 -2.510035992 -6.801670074
18.50000954 -2.566301107 -6.800293922
18.50342941 -2.914865017 -6.820244789
18.5092392 -2.974001884 -6.82574892
18.52412033 -3.03471899 -6.834692001
18.54064941 -3.095865965 -6.844324112
18.55698967 -3.157141924 -6.853956223
18.57312012 -3.218548059 -6.863586903
18.59737015 -3.281550884 -6.876315117
18.62417984 -3.345231056 -6.890075207
18.63599968 -3.406404972 -6.898330212
18.64299965 -3.466824055 -6.904866219
18.65903091 -3.52906394 -6.914842129
18.67116928 -3.590724945 -6.923440933
18.96352005 -1.979367971 -7.056311131
18.90611076 -2.032032967 -7.037120819
18.70696068 -2.068716049 -6.964899063
18.68190956 -2.123981953 -6.957921028
18.63248062 -2.176289082 -6.94187212
18.59314919 -2.229538918 -6.929659843
18.54994965 -2.282110929 -6.916052818
18.53449059 -2.337955952 -6.912912846
18.5077095 -2.392286062 -6.905585766
18.50964928 -2.681807995 -6.920938015
18.50134087 -2.738583088 -6.920938015
18.53731918 -2.802052021 -6.937685013
18.54346085 -2.861196041 -6.943266869
18.55311012 -2.920986891 -6.950244904
18.57460022 -2.982795 -6.96175909
18.56905937 -3.040371895 -6.963153839
18.57350922 -3.099639893 -6.968388081
18.59347916 -3.161633015 -6.979553223
18.57445908 -3.217063904 -6.976064205
18.59033966 -3.278589964 -6.985833168
18.59956932 -3.339085102 -6.993159771
18.60858917 -3.399667978 -7.000486851
18.61190033 -3.459310055 -7.005720139
18.63434982 -3.522659063 -7.018280983
18.65197945 -3.585294008 -7.02909708
18.94536972 -1.975972056 -7.170743942
18.89459038 -2.029289961 -7.153746128
18.76279068 -2.073374033 -7.105937958
18.70895004 -2.125540972 -7.087878227
18.62524033 -2.173924923 -7.058485985
18.5562706 -2.223598003 -7.034759045
18.55028915 -2.280631065 -7.035112858
18.50888062 -2.333201885 -7.02200985
18.50259018 -2.679260015 -7.037238121
18.5072403 -2.737930059 -7.042195797
18.50892067 -2.796232939 -7.04609108
18.50765038 -2.854146004 -7.048923969
18.51265907 -2.913094044 -7.054235935
18.51656914 -2.971951962 -7.059194088
18.51844025 -3.030560017 -7.063443184
18.51734924 -3.088743925 -7.066629887
18.57655907 -3.274633884 -7.100625992
18.58666992 -3.335246086 -7.108417988
18.61775017 -3.399816036 -7.124352932
18.64125061 -3.463239908 -7.13745594
18.72518921 -3.538305998 -7.173931122
18.72526932 -3.597855091 -7.178181171
18.72956085 -2.068001032 -7.213683128
18.64339066 -2.116398096 -7.182778835
18.6655407 -2.176937103 -7.193919182
18.63005066 -2.230751991 -7.182778835
18.61849022 -2.287328959 -7.180983067
18.5091095 -2.562668085 -7.152954102
18.53165054 -2.623759031 -7.164812088
18.50503922 -2.677927017 -7.157625198
18.54844093 -2.742331982 -7.177749157
18.53347969 -2.798249006 -7.175232887
18.55985069 -2.860497952 -7.188888073
18.57679939 -2.921485901 -7.198949814
18.65682983 -3.110295057 -7.240993023
40.80175018 -8.778514862 -3.650501966
40.74172974 -8.901779175 -4.154142857
40.80498886 -8.630786896 -4.42677021
40.75688934 -8.768861771 -4.675106049
39.77738953 -9.320034027 -5.587097168
39.75342941 -9.443169594 -5.587779999
39.73101044 -9.566710472 -5.58873415
39.82115936 -9.204130173 -5.843869209
39.7898407 -9.32557869 -5.84344101
39.74082184 -9.442803383 -5.84044981
39.92258835 -9.230202675 -6.114562988
39.93259048 -9.361667633 -6.120502949
39.91714859 -9.487336159 -6.122581959
40.06066895 -9.110138893 -6.394851208
40.02674866 -9.231668472 -6.393922806
39.99728012 -9.354199409 -6.393767834
39.95397186 -9.473445892 -6.391448021
