# .PCD v0.7 - Point Cloud Data file format
VERSION 0.7
FIELDS x y z
SIZE 4 4 4
TYPE F F F
COUNT 1 1 1
WIDTH 170
HEIGHT 1
VIEWPOINT 0 0 0 1 0 0 0
POINTS 170
DATA ascii
-22.87491989 -6.632387161 -5.590190887
-22.51576042 -6.751636982 -5.664122105
-22.53730011 -6.682805061 -5.664357185
-22.57168961 -6.617731094 -5.66789484
-21.72809982 -6.732159138 -5.614534855
-20.25634003 -6.422119141 -5.641594887
-21.54673958 -6.182025909 -5.953380108
-19.89277077 -6.710462093 -5.70284605
-19.92790031 -6.654288769 -5.707067966
-19.97661018 -6.602505207 -5.715248108
-19.9967804 -6.541185856 -5.715248108
-20.03418922 -6.485452175 -5.720262051
-18.21109962 -6.148317814 -6.052372932
-18.25790977 -6.101786137 -6.061740875
-18.2883091 -6.04963398 -6.065670013
-18.33576965 -6.002989769 -6.075339794
-18.37314034 -5.952877998 -6.081686974
-18.41128922 -5.90288496 -6.088335037
-18.4847393 -5.863956928 -6.106770039
-18.19945908 -6.326305866 -6.182011127
-18.17289925 -6.254643917 -6.16633606
-18.24880028 -6.155797005 -6.179244995
-18.26128006 -6.097671032 -6.177093983
-18.28713036 -6.044006824 -6.179553032
-18.32276917 -5.993495941 -6.185391903
-18.34560013 -5.93872118 -6.186929226
-18.37641907 -5.886474133 -6.191232204
-22.5353508 -6.239925861 -7.511329174
-18.15103912 -6.314592838 -6.292075157
-18.16852951 -6.258257866 -6.29144907
-18.22989082 -6.21689415 -6.306159973
-18.21738052 -6.150306225 -6.295205116
-18.16139984 -6.069405079 -6.269227028
-18.28182983 -6.047357082 -6.304594994
-18.30480957 -5.992716789 -6.306159973
-18.32492065 -5.937116146 -6.30678606
-17.6908493 -6.210282803 -6.253759861
-17.75279999 -6.170918941 -6.2690382
-17.74117088 -6.10593605 -6.258215904
-17.78404999 -6.059732914 -6.26680994
-17.80256081 -6.005144119 -6.26680994
-18.21924019 -6.083498001 -6.407815933
-18.27382088 -6.039473057 -6.420547962
-17.59502983 -6.174964905 -6.324588776
-17.61836052 -6.122509003 -6.326203823
-17.64664078 -6.011238098 -6.322972775
-15.92615032 -5.703887939 -5.839446068
-18.14060974 -6.371844769 -6.642643929
-19.88451958 -5.972166061 -7.176249027
-19.90637016 -5.912209034 -7.17756319
-18.20952034 -6.331377029 -6.785227776
-18.3714695 -6.324566841 -6.838636875
-18.40773964 -6.273952007 -6.844978809
-18.35634041 -6.193644047 -6.818609238
-19.04277039 -5.972908974 -7.025568962
-19.76201057 -5.867063999 -7.258232117
-19.47001076 -5.974182129 -7.29433918
-19.4603405 -5.905951023 -7.283833027
-19.5883007 -5.879212856 -7.3251791
-18.32995033 -5.999382973 -7.138301849
-18.33934975 -5.940230846 -7.134812832
-18.37723923 -5.828156948 -7.135510921
-18.41917992 -5.779325962 -7.14493084
-14.54172039 -5.564863205 -5.853743076
-14.62780952 -5.546411991 -5.881719112
-18.04314041 -5.907069206 -7.147017002
-18.1501503 -5.880505085 -7.18242979
-18.24291039 -5.848772049 -7.2121768
-18.26700974 -5.794754982 -7.214655876
14.96277046 30.88244057 -6.805297852
14.5801096 30.09770966 -7.239963055
14.61991978 30.19013977 -7.692050934
14.61223984 30.16916084 -7.884246826
30.98784065 -27.91968918 -5.964672089
27.07883072 -25.94622993 -6.284105778
27.34617996 -27.84498024 -6.793532848
24.39028931 -27.07646942 -6.55732584
24.48185921 -27.00507927 -6.782381058
24.35350037 -27.02967072 -6.769688129
24.23111916 -27.0603199 -6.75865078
24.13557053 -27.12058067 -6.75515604
27.47164917 -16.9214592 -7.19601202
28.37657928 -2.002171993 -5.986341953
28.30983925 -0.9592294097 -6.126109123
28.3202095 -2.092518091 -6.141634941
28.07324028 -2.066432953 -6.273011208
28.11223984 -0.7758730054 -6.442541122
28.06298065 -0.8606808186 -6.431759834
28.01247978 -0.9451606274 -6.420753956
27.94615936 -1.028764009 -6.406154156
27.90781975 -1.113098025 -6.398067951
27.89160919 -1.198168039 -6.3951478
27.88002014 -1.283373952 -6.393351078
27.86718941 -1.36847198 -6.391329765
27.84923935 -1.453250051 -6.388185024
27.86411095 -1.53975904 -6.39267683
27.87384033 -1.62609005 -6.396047115
27.88915062 -1.712852955 -6.400763988
27.89834976 -1.79934895 -6.404131889
27.93061066 -1.887495041 -6.412891865
27.95384979 -1.975237966 -6.419631004
27.97098923 -2.062711 -6.425021172
27.96453094 -2.148514986 -6.425021172
28.05227089 -0.7762147784 -6.59389782
27.96416092 -0.8596416712 -6.573654175
27.93610001 -0.9445750713 -6.567671776
27.91945076 -1.029775023 -6.564452171
27.86268044 -1.113288045 -6.55179882
27.8494091 -1.198346019 -6.549499035
27.82908058 -1.283018947 -6.545588017
27.8182106 -1.368057013 -6.543976784
27.8119297 -1.453294039 -6.543517113
27.82288933 -1.539473057 -6.547197819
27.84621048 -1.626471043 -6.553868771
27.86149025 -1.713148952 -6.558701038
27.88038063 -1.800186992 -6.564452171
27.91161919 -1.888211012 -6.573194027
27.93870926 -1.97616899 -6.58101511
27.95871925 -2.063808918 -6.587225914
27.99202919 -2.152635098 -6.596659184
27.99596977 -2.239356995 -6.599188805
28.05685997 -2.330878019 -6.615293026
27.99822044 -0.8626875877 -6.757386208
27.93133926 -0.9464098215 -6.741821766
27.86808968 -1.029873013 -6.727200985
27.86091995 -1.11521101 -6.726257801
27.82143974 -1.199133992 -6.717532158
27.81084061 -1.284170032 -6.715880871
27.8261795 -1.370442033 -6.720598221
27.86842918 -1.458242059 -6.731916904
27.86381912 -1.543733954 -6.731916904
27.89388084 -1.631253958 -6.74040699
27.90037918 -1.717540026 -6.743237019
27.90953064 -1.804069042 -6.746774197
27.91065025 -1.890144944 -6.748425007
27.93865013 -1.978167057 -6.756679058
27.96734047 -2.066448927 -6.76516819
27.98605919 -2.154181004 -6.771298885
27.94812012 -0.863139689 -6.910741806
27.95697975 -0.9492740035 -6.913637161
27.8841095 -1.032457948 -6.896266937
27.83910942 -1.116330028 -6.885893822
27.8074398 -1.200520992 -6.878898144
27.81138039 -1.28618598 -6.88082695
27.7995491 -1.371122003 -6.878898144
27.82138062 -1.45777297 -6.885410786
27.82550049 -1.543604016 -6.887581825
27.84485054 -1.630381942 -6.893612862
27.87071037 -1.717710018 -6.901332855
27.90695953 -1.805901051 -6.911706924
27.89934921 -1.891378999 -6.911223888
27.92535973 -1.979226947 -6.919185162
27.95689964 -2.067681074 -6.928594112
40.68878937 -8.754210472 -3.640290976
40.66328049 -8.867124557 -3.903791904
40.68050003 -8.888401031 -4.14784193
40.70188141 -8.608974457 -4.415486813
39.96353912 -9.363652229 -5.613423824
39.84017181 -9.463776588 -5.600056171
39.89585114 -9.350422859 -5.859111786
39.78704071 -9.453785896 -5.847288132
40.09891129 -9.270963669 -6.141738892
40.00094986 -9.377691269 -6.131046772
40.00085831 -9.507227898 -6.135501862
40.47719955 -9.751722336 -6.213613033
40.06044006 -9.239439964 -6.399337769
40.06076813 -9.36905098 -6.403978825
40.02606964 -9.490543365 -6.4030509
40.09027863 -9.263692856 -6.64029789
40.06454849 -9.387321472 -6.640779018
