# .PCD v0.7 - Point Cloud Data file format
VERSION 0.7
FIELDS x y z
SIZE 4 4 4
TYPE F F F
COUNT 1 1 1
WIDTH 58
HEIGHT 1
VIEWPOINT 0 0 0 1 0 0 0
POINTS 58
DATA ascii
10.88212013 27.47373962 -7.861022949
14.93976021 31.0775795 -6.838355064
14.94316006 30.63134003 -6.975186825
14.99427986 30.49832916 -6.955230236
24.39656067 -32.06866074 -6.501863003
24.92667961 -31.74708939 -6.766404152
24.80792999 -31.7961998 -6.760584831
24.46269035 -31.9558506 -6.746286869
24.33646965 -31.99386024 -6.738472939
24.21264076 -32.03454971 -6.73132515
24.06633949 -32.25046921 -6.745623112
30.97900963 -27.91175079 -5.962963104
30.77206039 -28.06928062 -5.956123829
20.29583931 8.047694206 -7.010644913
20.32929039 7.988870144 -7.013719082
20.35104942 7.92542696 -7.012795925
20.38768959 7.867751122 -7.017098904
20.46328926 7.824881077 -7.034925938
20.39286995 7.72632122 -7.002346039
20.47083092 7.684122086 -7.021094799
20.24406052 8.104698181 -7.144995213
20.26618004 8.041501045 -7.144055843
20.28544998 7.977201939 -7.142178059
20.30982971 7.914929867 -7.142178059
20.32427025 7.84882021 -7.138734818
20.3500309 7.787107944 -7.139360905
20.39069939 7.731035233 -7.145308018
20.40365028 7.664433002 -7.141551971
20.47079086 7.546648979 -7.148750782
20.1320591 8.41442585 -7.284726143
20.19631958 8.368588448 -7.29873085
20.21927071 8.30550766 -7.297776222
20.23411942 8.239146233 -7.293955803
20.23117065 8.165676117 -7.283771038
20.24115944 8.097583771 -7.27835989
20.25798035 8.032301903 -7.275495052
20.27370071 7.966647148 -7.272312164
20.1946907 7.864163876 -7.235071182
20.34078026 7.849267006 -7.278995991
20.34881973 7.780731201 -7.273266792
24.24124908 43.39279175 -7.425372124
15.54860973 34.2400589 -7.7003088
40.62548828 -8.740590096 -3.634569883
40.59616089 -8.852489471 -3.897285938
40.58425903 -8.867377281 -4.13793993
40.62667084 -8.723365784 -4.410165787
40.79256821 -8.76909256 -5.706862926
39.93463135 -9.486214638 -5.613423824
40.85083008 -8.784275055 -5.975356102
40.03139114 -9.252720833 -5.874925137
39.897789 -9.480098724 -5.863669872
40.21398163 -9.685660362 -5.914812088
40.02375031 -9.25358963 -6.13015604
39.9817009 -9.373177528 -6.12807703
39.94216919 -9.493280411 -6.126442909
40.02867889 -9.232111931 -6.394231796
40.00497055 -9.355999947 -6.39500618
39.97415924 -9.478233337 -6.394697189
