# .PCD v0.7 - Point Cloud Data file format
VERSION 0.7
FIELDS x y z
SIZE 4 4 4
TYPE F F F
COUNT 1 1 1
WIDTH 190
HEIGHT 1
VIEWPOINT 0 0 0 1 0 0 0
POINTS 190
DATA ascii
10.97482014 27.4558506 -8.048413277
14.97786045 30.46492958 -6.947568893
14.54570007 30.2629509 -7.269101143
14.5805397 30.09859085 -7.240176201
14.65524006 30.01770973 -7.231454849
14.64663029 30.25678062 -7.498866081
31.34322929 -29.64776993 -5.649393082
31.30311012 -29.79232025 -5.658671856
31.2079792 -29.88479042 -5.658019066
30.97753906 -27.91041946 -5.962677002
16.45690918 -18.38467026 -5.792864799
16.3978405 -18.43215942 -5.791944981
16.33540916 -18.47582054 -5.789874077
16.45096016 -18.38080978 -5.945927143
16.34024048 -18.3701992 -5.926117897
16.2857399 -18.42243004 -5.926826
16.2342701 -18.47813988 -5.928711891
16.18005943 -18.53079033 -5.929656029
16.37459946 -18.2982502 -6.063973904
16.29968071 -18.32737923 -6.056978226
16.24979973 -18.38456917 -6.059390068
16.20742035 -18.45037079 -6.064698219
16.14179993 -18.48978043 -6.061319828
16.09580994 -18.55167007 -6.065421104
16.4743309 -18.28171921 -6.237242222
16.35610962 -18.26288033 -6.213513851
16.28775978 -18.29921913 -6.208817959
16.21742058 -18.33313942 -6.203380108
16.15726089 -18.37844086 -6.201897144
16.09506035 -18.42136002 -6.199673176
16.03211975 -18.46332932 -6.197200775
15.95893955 -18.49336052 -6.190774918
15.91158962 -18.5532608 -6.19448185
16.68987083 -18.19070053 -6.408610821
16.59486961 -18.19893074 -6.393445969
16.52920914 -18.23900032 -6.389655113
16.44079971 -18.25367928 -6.377017975
16.14915085 -18.37846947 -6.35073185
16.07040977 -18.40242004 -6.341886044
16.00119972 -18.43701935 -6.336831093
15.94456005 -18.48601913 -6.336831093
15.88903046 -18.53631973 -6.337337017
15.85968971 -18.61738968 -6.348457813
16.61874008 -18.32769966 -6.574881077
16.54368019 -18.35778999 -6.567389965
16.35622025 -18.37524986 -6.537425995
16.28631973 -18.41013908 -6.532001019
16.19149017 -18.41649055 -6.516501904
16.12029076 -18.44935036 -6.510560989
16.03764915 -18.46880913 -6.499969959
15.99857998 -18.53841019 -6.507203102
15.92842007 -18.5720005 -6.501779079
16.57465935 -18.39492989 -6.733271122
16.47438049 -18.39682961 -6.715326786
16.4011898 -18.42855072 -6.708467007
16.31517982 -18.44555092 -6.696328163
16.28079987 -18.52087975 -6.705564022
16.19788933 -18.54096031 -6.694745064
16.62719917 -18.44491005 -6.906930923
16.51206017 -18.43055916 -6.88241291
16.44775963 -18.47250938 -6.879179955
16.35399055 -18.48105049 -6.863554001
16.32456017 -18.56222916 -6.875139236
16.24282074 -18.58395004 -6.86463213
16.18951988 -18.63805008 -6.866248131
16.46113014 -18.50330925 -7.042053223
16.3584404 -18.5018692 -7.022255898
16.2622509 -18.5071907 -7.005208015
16.21109009 -18.56351089 -7.007681847
16.08494949 -18.6487999 -7.002458096
16.35777092 -18.4843998 -7.177009106
16.27436066 -18.5042305 -7.165221214
16.23772049 -18.57719994 -7.174201965
16.10230064 -18.76811028 -7.190481186
33.80529022 -2.59383297 -6.305945873
29.49331093 -3.450417042 -6.250558853
29.46023941 -3.538202047 -6.245792866
29.39430046 -3.713382006 -6.236467838
29.26136971 -3.879142046 -6.213050842
29.0981102 -3.948374033 -6.18072319
29.18759918 -4.051753044 -6.202482224
28.72677994 -5.071781158 -6.13969183
28.72456932 -5.162312984 -6.142592907
28.74131012 -5.256398201 -6.14963913
28.73467064 -5.346340179 -6.151710987
28.70371056 -5.431743145 -6.148602009
28.69363976 -5.521072865 -6.150053978
28.68329048 -5.610393047 -6.15150404
29.37093925 -3.260807991 -6.392820835
29.35012054 -3.349682093 -6.390481949
29.32611084 -3.438118935 -6.387504101
29.18251991 -3.512079954 -6.358366013
28.47179031 -3.781558037 -6.212247849
28.46876907 -3.870074034 -6.214161873
28.4809494 -3.960762024 -6.219480038
28.66707039 -5.068471909 -6.297111034
28.61520004 -5.422244072 -6.299876213
28.59746933 -5.509823799 -6.299664021
28.53727913 -5.589083195 -6.290091991
28.48550034 -5.669742107 -6.28243494
28.54841995 -5.773375988 -6.300302029
28.55258942 -5.865456104 -6.305192947
29.00638962 -3.482683897 -6.511967182
28.41621971 -3.588851929 -6.383516788
28.33249092 -3.666625023 -6.367105007
28.18375015 -3.735332012 -6.336031914
28.31139946 -3.84066391 -6.367543221
28.36617088 -3.936755896 -6.382641792
28.55566025 -5.040574074 -6.463169098
28.46010017 -5.294259071 -6.452228069
28.48877907 -5.390071869 -6.462512016
28.4222908 -5.46786499 -6.451134205
28.22583008 -3.480777025 -6.515540123
28.29042053 -3.576894045 -6.53305912
28.28125 -3.663921118 -6.533507824
28.27857018 -3.751822948 -6.53553009
28.10470963 -3.816528082 -6.497795105
28.28396988 -3.929290056 -6.542267799
27.98827934 -4.151117802 -6.482071877
28.05164909 -4.512998104 -6.509251118
28.05208969 -4.601405144 -6.512619019
28.07533073 -4.693714142 -6.521378994
28.05311012 -4.778515816 -6.519583225
28.09976006 -4.87522316 -6.533957005
28.08275986 -4.961069107 -6.533507824
28.10384941 -5.053758144 -6.542044163
28.23007011 -5.165921211 -6.575285912
28.33575058 -5.275159836 -6.603812218
28.30764008 -5.449847221 -6.604935169
21.30632973 7.700382233 -7.002188206
21.01542091 7.968294144 -7.084095955
20.85658073 8.642612457 -7.250689983
20.8724308 8.574245453 -7.247002125
20.88277054 8.503707886 -7.24146986
20.90081978 8.436394691 -7.238702774
20.88242912 8.354556084 -7.22333622
20.89912033 8.286941528 -7.220262051
20.92532921 8.223134041 -7.220570087
20.93361092 8.152335167 -7.214729786
20.91324997 8.070598602 -7.199053764
20.84062004 8.566878319 -7.384438992
20.8861599 8.510784149 -7.391324997
20.9007206 8.442042351 -7.387255192
20.9300499 8.379291534 -7.388506889
20.92741013 8.303832054 -7.378490925
20.93952942 8.234375954 -7.373795986
20.92840958 8.155958176 -7.360963821
20.97813988 8.101290703 -7.369728088
19.72127914 11.74901009 -7.236405849
19.70391083 11.65690041 -7.21676302
19.78165054 11.5396204 -7.219181061
19.84811974 11.33485031 -7.204977036
19.88446045 11.27484035 -7.205582142
19.68535995 12.13372993 -7.427728176
19.68840981 12.05241013 -7.414818764
19.7301693 11.99491978 -7.41666317
19.72941017 11.91170025 -7.402523994
19.74790955 11.84035015 -7.395761967
19.72200012 11.74271011 -7.372404099
19.72845078 11.66471004 -7.361339092
19.78219032 11.61472988 -7.36810112
19.79709053 11.46070957 -7.347199917
19.82308006 11.39470005 -7.343819141
19.89759064 11.27567005 -7.345664024
19.84300995 11.90361977 -7.584444046
19.75867081 11.77075005 -7.538119793
19.77753067 11.69993019 -7.531548023
19.81168938 11.63823032 -7.530920982
19.85375023 11.41847038 -7.506507874
19.93404961 11.38339996 -7.523723125
40.72676086 -8.7623806 -3.643723965
40.64966965 -8.864154816 -3.902472019
40.6027298 -8.871411324 -4.13984108
40.8239212 -8.783284187 -4.68285799
39.86708832 -9.341052055 -5.599782944
39.8237915 -9.45988369 -5.597736835
39.94266891 -9.232214928 -5.861817837
39.848629 -9.339355469 -5.85213089
39.84096909 -9.466599464 -5.855266094
39.96691132 -9.240448952 -6.121395111
39.94126129 -9.363698959 -6.12184
39.91812134 -9.487565041 -6.122731209
42.69068909 7.288243771 -6.743258953
42.70993042 7.156745911 -6.742794991
42.73363113 7.026000977 -6.743103981
40.03829956 -9.234333038 -6.395780087
40.12425995 -9.383901596 -6.414189816
39.98376846 -9.480513573 -6.396244049
41.8742485 11.03149986 -6.193883896
41.93658829 10.63613987 -6.188327789
