# .PCD v0.7 - Point Cloud Data file format
VERSION 0.7
FIELDS x y z
SIZE 4 4 4
TYPE F F F
COUNT 1 1 1
WIDTH 984
HEIGHT 1
VIEWPOINT 0 0 0 1 0 0 0
POINTS 984
DATA ascii
14.92866039 -4.629636765 -4.621606827
14.87963009 -4.664525986 -4.610743999
14.81865978 -4.695394993 -4.596166134
14.92535019 -2.210464001 -4.551782131
14.91281986 -2.255384922 -4.550035
14.90944004 -4.61910677 -4.710196018
14.80663967 -4.637086868 -4.681950092
14.7130003 -4.657367229 -4.65661478
14.65764046 -4.689363003 -4.643510818
14.54669952 -4.70310688 -4.612642765
14.52947044 -4.74682188 -4.611770153
14.84792042 -2.200434923 -4.625408173
14.70135975 -2.224827051 -4.581470013
14.68879986 -2.269045115 -4.579689026
14.58778954 -4.668522835 -4.720705032
14.40546989 -4.707808971 -4.67053318
14.28215027 -4.716050148 -4.634908199
14.26580048 -4.75924015 -4.63431406
14.20226955 -4.786515236 -4.618282795
14.87152004 -2.20008111 -4.724792957
14.61845016 -2.254393101 -4.648033142
14.40995026 -2.267527103 -4.583362103
14.41327953 -2.313386917 -4.586686134
14.09912014 -4.747777939 -4.67523098
13.99063015 -4.759087086 -4.643802166
13.94801998 -4.792386055 -4.634434223
13.89993 -4.82359314 -4.623251915
14.98733044 -2.221332073 -4.852385998
14.60221004 -2.210084915 -4.728828907
14.48814964 -2.23831892 -4.693789959
14.47181988 -2.281276941 -4.69071722
14.26274967 -2.293203115 -4.62463522
14.19085026 -2.326334 -4.603427887
14.14610004 -2.363590002 -4.591134071
13.7474699 -4.822183132 -4.664284229
13.68865967 -4.848772049 -4.649223804
13.64774036 -4.881453991 -4.640310764
14.46080017 -2.229808092 -4.780608177
14.32723999 -2.254224062 -4.738352776
14.17490005 -2.274831057 -4.689837933
14.0947504 -2.306339025 -4.66542387
13.97426033 -2.330656052 -4.627552032
13.87714958 -2.358233929 -4.597504139
13.89231014 -2.404686928 -4.605016232
13.43715954 -4.84824419 -4.666362762
13.40616035 -4.883593082 -4.660728931
14.96041012 -2.26403594 -5.038817883
14.57166004 -2.296740055 -4.911499023
14.27908039 -2.295533895 -4.814417839
14.08767033 -2.309118032 -4.75171423
13.93185043 -2.327486038 -4.701104164
13.76671028 -2.343328953 -4.647312164
13.74825001 -2.38361001 -4.643493176
13.65592003 -2.410778046 -4.614528179
13.64472008 -2.451992035 -4.61325407
13.36281013 -4.825528145 -4.728796005
13.27223969 -4.838899136 -4.701741219
13.22797012 -4.868787766 -4.691236973
13.1863203 -4.899442196 -4.681687832
13.09844017 -4.912573814 -4.65558815
13.04961967 -4.939981937 -4.643493176
14.85881042 -2.250106096 -5.089086056
14.76018047 -2.281516075 -5.057423115
14.57081985 -2.298043966 -4.994420052
14.37870026 -2.31298089 -4.930448055
14.12125015 -2.316040993 -4.843859196
13.88352966 -2.320820093 -4.764056206
13.78958035 -2.348628044 -4.734007835
13.64616966 -2.367310047 -4.686837196
13.52700996 -2.389414072 -4.648066044
13.48050022 -2.423870087 -4.634496212
13.42831039 -2.457041025 -4.618988037
13.03567982 -4.890510082 -4.711715221
12.95777035 -4.906686783 -4.688776016
12.90464973 -4.931890965 -4.674881935
12.83823967 -4.95170784 -4.656143188
12.75596046 -4.964984894 -4.631587982
14.66423035 -2.2628901 -5.116699219
14.56857967 -2.293919086 -5.085504055
14.41504955 -2.315100908 -5.033948898
14.33423996 -2.347261906 -5.008008003
14.25895977 -2.379882097 -4.984036922
13.77575016 -2.342735052 -4.816237926
13.56188011 -2.349215031 -4.743340015
13.46251965 -2.374576092 -4.710831165
13.38451958 -2.40318799 -4.685874939
13.28322983 -2.427099943 -4.652709007
13.23394012 -2.460076094 -4.637932777
13.20034027 -2.495754957 -4.628737926
12.91199017 -4.885675907 -4.757788181
12.79545975 -4.88652277 -4.720026016
12.75043964 -4.914208889 -4.708860874
12.68513012 -4.933792114 -4.690144062
12.64706993 -4.96371603 -4.681605816
12.57645035 -4.980587006 -4.660919189
14.45750999 -2.322793007 -5.143566132
14.30055046 -2.342591047 -5.089822769
14.24680996 -2.378688097 -5.073132992
14.08146 -2.395497084 -5.016386032
13.68303013 -2.370899916 -4.875853062
13.49746037 -2.381407022 -4.811761856
13.32215977 -2.392631054 -4.751342773
13.2683897 -2.425013065 -4.734652996
13.11816978 -2.439158916 -4.683246136
13.02820015 -2.463797092 -4.653536797
13.00020981 -2.499838114 -4.646193981
12.96658039 -2.534643888 -4.636847019
12.57044029 -4.93431282 -4.740326881
12.51931953 -4.958620071 -4.726641178
12.45065022 -4.975662231 -4.706278801
12.39599037 -4.997971058 -4.691257
14.14953995 -2.363859892 -5.125703812
14.00125027 -2.383258104 -5.074191093
13.94381046 -2.417521954 -5.055890083
13.8242197 -2.440495014 -5.014883041
13.78888988 -2.477902889 -5.004715919
13.21113014 -2.41592598 -4.795951843
13.1009903 -2.437341928 -4.75833416
12.83331966 -2.509954929 -4.668525219
12.78219032 -2.540693045 -4.652596951
12.76418972 -2.577847004 -4.648869038
13.44474983 -2.930649042 -4.914906979
13.40812969 -2.965786934 -4.904739857
11.99969959 -5.054961205 -4.648530006
11.88630009 -5.093288898 -4.616333961
13.89813995 -2.408518076 -5.12541914
13.71592045 -2.420310974 -5.060404778
13.63080025 -2.448436975 -5.031509876
13.52900982 -2.473025084 -4.996424198
13.03300953 -2.423717976 -4.814454079
12.54238033 -2.532126904 -4.645555973
12.50327015 -2.564182043 -4.633861065
12.52659988 -2.609038115 -4.645555973
13.35085011 -2.823448896 -4.95720911
13.29621983 -2.854542017 -4.940010071
13.26996994 -2.891522884 -4.933474064
13.25002956 -2.929789066 -4.929346085
13.22449017 -2.966726065 -4.923153877
13.72743034 -2.421278954 -5.147482872
13.64060974 -2.449146986 -5.117477894
13.4366703 -2.45512104 -5.043161869
13.28901958 -2.470310926 -4.990128994
13.03551006 -2.464606047 -4.896974087
12.63630962 -2.509839058 -4.754273891
12.54862976 -2.532473087 -4.723918915
13.1296196 -2.817776918 -4.957333088
13.14198017 -2.862631083 -4.96535778
13.12123013 -2.900307894 -4.960822105
13.09490013 -2.936655045 -4.954193115
13.06937981 -2.973074913 -4.94791317
13.32404995 -2.475055933 -5.089535236
13.2125597 -2.496294022 -5.049518108
13.00004005 -2.497454882 -4.970548153
12.60103989 -2.501036882 -4.822522163
12.55298042 -2.531546116 -4.806941032
13.01566982 -2.499483109 -5.061203957
12.52464962 -2.524918079 -4.877579212
10.68227959 27.94343948 -7.774444103
14.91808987 31.03249931 -6.828379154
14.99081993 30.49130058 -6.953617096
12.38360977 34.29079056 -7.683339119
12.48606968 34.24528885 -7.681681156
14.88080978 31.45306015 -7.534325123
14.54730988 30.03000069 -7.223586082
31.2967701 -29.96982002 -5.674224854
30.97092056 -27.90446091 -5.961394787
24.20174026 -29.1269207 -6.108347893
24.12797928 -29.22006989 -6.112353802
24.06369019 -27.03981018 -6.734920979
20.27560997 -1.938474059 -4.023223877
20.12063026 -1.852862954 -4.119249821
19.9617691 -1.900002956 -4.087601185
20.06988907 -1.972450972 -4.111186981
20.20126915 -1.674602985 -4.254323959
20.04301071 -1.723410964 -4.221789837
19.97624016 -1.779423952 -4.208734035
19.9054203 -1.834684968 -4.194849968
19.84223938 -1.890269995 -4.18262291
19.81784058 -1.949316978 -4.178686142
19.49349976 -1.977810025 -4.11092186
19.49587059 -2.159508944 -4.1154809
20.10961914 -1.610090017 -4.351642132
19.90885925 -1.655506015 -4.30889082
19.8248291 -1.709779024 -4.291664124
19.66571999 -1.756857991 -4.258059025
19.63397026 -1.814756036 -4.252315998
19.50477982 -1.863186002 -4.22530508
19.40270042 -1.913524032 -4.204247952
19.36466026 -1.969779015 -4.197228909
19.31867981 -2.02500391 -4.188508987
19.3046093 -2.083425045 -4.186808109
19.33890915 -2.147169113 -4.195741177
19.25457001 -2.197627068 -4.178726196
19.24191093 -2.256006002 -4.177449226
19.25818062 -2.317831039 -4.182553768
19.21219063 -2.372113943 -4.174046993
19.21161079 -2.431904078 -4.175535202
19.3842392 -1.726533055 -4.324596882
19.20978928 -1.770423055 -4.286521912
19.12364006 -1.821673989 -4.268359184
19.0781498 -1.876423001 -4.259387016
18.99464035 -1.927070975 -4.241880894
18.97019958 -1.983410001 -4.237723827
18.9766407 -2.042957067 -4.240569115
18.91403008 -2.094939947 -4.22787714
18.95211029 -2.158032894 -4.237943172
18.90275955 -2.211180925 -4.228313923
18.91817093 -2.27183795 -4.233346939
18.82394981 -2.319134951 -4.213653088
18.86902046 -2.383475065 -4.225470066
18.89645958 -2.445859909 -4.233346939
18.80953979 -2.493313074 -4.215404034
18.71574974 -2.539338112 -4.19592905
18.70496941 -2.59634304 -4.195271969
18.70465088 -2.654813051 -4.197021961
18.70606995 -2.713586092 -4.199211121
18.70537949 -2.772105932 -4.200962067
18.72187042 -2.83327508 -4.206651211
18.72369957 -2.892337084 -4.209057808
18.73209 -2.952501059 -4.21299696
18.74316978 -3.013206959 -4.217591763
18.7511692 -3.073535919 -4.221530914
18.75032043 -3.132496119 -4.223499775
18.76370049 -3.193934917 -4.228752136
18.76823997 -3.253985882 -4.23203516
18.77738953 -3.314941883 -4.236411095
18.78825951 -3.376329899 -4.241224766
18.78741074 -3.435710907 -4.243412971
18.79309082 -3.496366978 -4.247132778
18.79953003 -3.557271004 -4.25107193
18.80002975 -3.617141962 -4.253697872
18.80032921 -3.677048922 -4.256323814
18.8119297 -3.739274979 -4.261576176
18.80801964 -3.798516035 -4.263326168
18.80010033 -3.856985092 -4.264202118
19.11240005 -1.704200983 -4.383082867
19.03236008 -1.75593102 -4.365787983
18.93181992 -1.805241942 -4.34377718
18.8845005 -1.859207988 -4.334117889
18.86610031 -1.91585505 -4.331198215
18.55872917 -1.942165971 -4.261343956
18.55850029 -1.99972105 -4.262691975
18.57551956 -2.059226036 -4.268083096
18.57492065 -2.116868019 -4.269430161
18.59543991 -2.177018881 -4.275720119
18.57513046 -2.232429981 -4.272574902
18.57303047 -2.290004015 -4.273697853
18.58234978 -2.349052906 -4.277515888
18.60404968 -2.409809113 -4.284255028
18.60526085 -2.468028069 -4.286275864
18.62367058 -2.528637886 -4.292341232
18.62933922 -2.587640047 -4.29548502
18.62516975 -2.645329952 -4.296383858
18.63817978 -2.705539942 -4.301324844
18.65196037 -2.765996933 -4.306490898
18.65302086 -2.824666977 -4.308736801
18.66353035 -2.884859085 -4.313230038
18.66806984 -2.944231033 -4.316373825
18.6733799 -3.003812075 -4.319743156
18.68041992 -3.063769102 -4.323562145
18.68726921 -3.12379694 -4.32738018
18.69201088 -3.183568954 -4.330749035
18.7023201 -3.244400024 -4.335465908
18.71146965 -3.305154085 -4.339958191
18.72233963 -3.366338968 -4.344900131
18.72341919 -3.425868034 -4.347595215
18.72911072 -3.486326933 -4.351412773
18.7240696 -3.544857979 -4.352760792
18.74468994 -3.608366966 -4.360173225
18.74021912 -3.667167902 -4.361744881
18.75754929 -3.730349064 -4.36848402
18.75175095 -3.789036989 -4.369832039
18.74003983 -3.846549034 -4.369832039
18.7243309 -3.903228998 -4.368933201
19.01568031 -1.697183967 -4.473070145
18.92801094 -1.747907043 -4.453516006
18.88187027 -1.802085042 -4.443852901
18.76391029 -1.848932981 -4.41716814
18.55677032 -1.886019945 -4.369317055
18.54604912 -1.942435026 -4.368166924
18.51679039 -1.996819973 -4.362646103
18.52412033 -2.055121899 -4.365866184
18.52352905 -2.112605095 -4.367247105
18.52952003 -2.170897007 -4.370236874
18.53437042 -2.229129076 -4.372998238
18.54578972 -2.288245916 -4.377368927
18.55702972 -2.347454071 -4.381740093
18.5680809 -2.40675211 -4.386110783
18.57508087 -2.465627909 -4.38956213
18.58575058 -2.525094032 -4.393931866
18.59622955 -2.584647894 -4.398303986
18.60940933 -2.644701004 -4.403365135
18.60890961 -2.702899933 -4.405204773
18.61689949 -2.762408018 -4.409115791
18.6246891 -2.821989059 -4.413025856
18.63133049 -2.881495953 -4.416707993
18.63777924 -2.94107008 -4.420388222
18.64115906 -3.000247002 -4.423378944
18.64916039 -3.060260057 -4.427519798
18.65407944 -3.119868994 -4.430970192
18.66168976 -3.180027008 -4.435112
18.66909981 -3.240261078 -4.4392519
18.67631912 -3.300570011 -4.44339323
18.68622017 -3.361471891 -4.448224068
18.69017982 -3.421412945 -4.451674938
18.69298935 -3.481232882 -4.45489502
18.68795967 -3.539652109 -4.45627594
18.70089912 -3.601571083 -4.462027073
18.72127914 -3.665097952 -4.469618797
18.7109108 -3.722707033 -4.46984911
18.71084023 -3.782407999 -4.472609997
18.71821976 -3.843709946 -4.477210999
18.7282505 -3.905688047 -4.482501984
18.68000031 -3.955466032 -4.473760128
20.34602928 -1.566208005 -4.91185379
18.78236961 -1.794191957 -4.5385499
18.80096054 -1.854190946 -4.544445992
18.53124046 -1.885020018 -4.480065823
18.54179955 -1.943586946 -4.484075069
18.53865051 -2.000776052 -4.484783173
18.50152016 -2.054210901 -4.477235794
18.45167923 -2.106004953 -4.466625214
18.45285034 -2.163508892 -4.468511105
18.52428055 -2.229516029 -4.487613201
18.53375053 -2.288361073 -4.491621017
18.54688072 -2.347774029 -4.496573925
18.55598068 -2.406788111 -4.500583172
18.56295967 -2.465625048 -4.504119873
18.57263947 -2.524919987 -4.508365154
18.58308983 -2.584430933 -4.512845993
18.59143066 -2.643755913 -4.516853809
18.60342979 -2.703716993 -4.521807194
18.61812019 -2.764203072 -4.52746582
18.62684059 -2.823930979 -4.531711102
18.6286602 -2.882699013 -4.534305096
18.63796043 -2.942715883 -4.538784981
18.64516068 -3.002509117 -4.542795181
18.65023994 -3.062058926 -4.546331882
18.65896988 -3.122309923 -4.550813198
18.66942024 -3.182969093 -4.555765152
18.67679977 -3.243223906 -4.560009003
18.67824936 -3.302537918 -4.562839985
18.68811035 -3.36344099 -4.567790985
18.69205093 -3.423384905 -4.571329117
18.69865036 -3.483918905 -4.575572968
18.68979073 -3.541630983 -4.57604599
18.70078087 -3.603183031 -4.581469059
18.70870972 -3.664273977 -4.586184978
18.72024918 -3.726207018 -4.591845036
18.72682953 -3.78728199 -4.596325874
18.71892929 -3.845499992 -4.597269058
18.72797966 -3.907275915 -4.602457047
18.66836929 -3.954646111 -4.590665817
20.35117912 -1.317270041 -5.029518127
20.36013031 -1.443351984 -5.033860207
20.36057091 -1.568997025 -5.036273003
18.68497086 -1.786489964 -4.625916004
18.59151077 -1.83513701 -4.603961945
18.54042053 -1.887549043 -4.592624187
18.52198982 -1.943106055 -4.589488029
18.50822067 -1.999088049 -4.587557793
18.51067924 -2.056824923 -4.589728832
18.49367905 -2.112395048 -4.587075233
18.48807907 -2.169235945 -4.58731699
18.51987076 -2.230586052 -4.59696579
18.52257919 -2.28858304 -4.599379063
18.52894974 -2.347105026 -4.602756023
18.53609085 -2.405812979 -4.606375217
18.54787064 -2.465224981 -4.611199856
18.56040955 -2.524863958 -4.616265774
18.57180023 -2.584467888 -4.621090889
18.58012009 -2.643757105 -4.625192165
18.59016991 -2.703399897 -4.629776001
18.60386086 -2.763699055 -4.635324001
18.61735916 -2.824107885 -4.640872955
18.6182003 -2.882697105 -4.643284798
18.62652969 -2.942528009 -4.647627831
18.62891006 -3.001511097 -4.650523186
18.63493919 -3.061165094 -4.654383183
18.64459991 -3.121526003 -4.659206867
18.65884972 -3.182790041 -4.665237904
18.66908073 -3.243506908 -4.670304775
18.67528915 -3.303641081 -4.674406052
18.68511963 -3.364530087 -4.67947197
18.6880703 -3.424288034 -4.68284893
18.69273949 -3.484450102 -4.686708927
20.29413033 -1.367563009 -5.148220062
20.23430061 -1.55072999 -5.136354923
18.70870972 -1.722759962 -4.752255917
18.65607071 -1.775647998 -4.740145206
18.56471062 -1.824434996 -4.718146801
18.53878021 -1.879328966 -4.712955952
18.55702019 -1.938714981 -4.719136238
18.49799919 -1.98993504 -4.705542088
18.46483994 -2.043689966 -4.698620796
18.45483971 -2.157286882 -4.699361801
18.50585938 -2.220827103 -4.714191914
18.50279999 -2.278064966 -4.715180874
18.5120697 -2.336884022 -4.719382763
18.51538086 -2.395035982 -4.722102165
18.52619934 -2.454247952 -4.726798058
18.76626968 -1.732967973 -4.882790089
18.6491394 -1.779868007 -4.853472233
18.55789948 -1.828629017 -4.830976963
18.52428055 -1.882717013 -4.823647022
18.49629021 -1.937222004 -4.8178339
18.44366074 -2.04619503 -4.807219982
18.43922043 -2.102988958 -4.807724953
18.4624691 -2.163039923 -4.815559864
18.50666046 -2.225795984 -4.828955173
18.50263023 -2.28291893 -4.829712868
18.50130081 -2.340401888 -4.831230164
18.51129913 -2.399390936 -4.835780144
18.51343918 -2.457444906 -4.838306904
16.89476013 -4.013010979 -4.495838165
16.97172928 -4.086341858 -4.51984787
16.89561081 -4.177858829 -4.506199837
16.86582947 -4.225440979 -4.50165081
16.84058952 -4.274071217 -4.498364925
16.81708908 -4.323067188 -4.495584965
16.81498909 -4.377565861 -4.498618126
19.44433975 -1.670138955 -5.177923203
19.06096077 -1.696141958 -5.076406002
18.85652924 -1.736279964 -5.022934914
18.68857956 -1.778658032 -4.979279995
18.54276085 -1.879657984 -4.943116188
18.44977951 -2.041954041 -4.922967911
18.44438934 -2.098656893 -4.92322588
18.45129013 -2.156802893 -4.926843166
18.51173019 -2.221457005 -4.944923878
18.49908066 -2.277530909 -4.943375111
18.51692009 -2.337419987 -4.950090885
18.51925087 -2.395457029 -4.952673912
16.69096947 -2.787050009 -4.484352112
16.6918602 -2.839864969 -4.486935139
16.68498039 -2.891391039 -4.48745203
16.68839073 -2.944747925 -4.490809917
16.70495987 -3.000545025 -4.497784138
16.70612907 -3.05369091 -4.500626087
16.71092033 -3.107578993 -4.504499912
16.71364975 -3.161166906 -4.50785923
16.71525955 -3.214617968 -4.510958195
16.71479988 -3.267738104 -4.513541222
16.71796036 -3.321638107 -4.517158031
16.72757912 -3.376925945 -4.522583008
16.73512077 -3.431916952 -4.527490139
16.74436951 -3.487380028 -4.532915115
16.7562809 -3.543530941 -4.539113998
16.76515961 -3.599179029 -4.544538975
16.77858925 -3.655944109 -4.551255226
16.78144073 -3.710530996 -4.555130005
16.78788948 -3.766016006 -4.56003809
16.79227066 -3.821146011 -4.564428806
16.79834938 -3.876773119 -4.569336891
16.80331039 -3.932252884 -4.573987007
16.82970047 -3.992928982 -4.584578037
16.82677078 -4.046802044 -4.587161064
16.82835007 -4.101838112 -4.591034889
16.83350945 -4.157847881 -4.595942974
16.81879997 -4.209003925 -4.595427036
16.80018997 -4.259160042 -4.593876839
16.7673893 -4.305635929 -4.588451862
16.71670914 -4.347332954 -4.578120232
16.66031075 -4.387282848 -4.566236973
16.55903053 -4.414982796 -4.541955948
16.52301979 -4.459722996 -4.535757065
20.47579002 -1.570685029 -5.577507019
19.63043022 -1.627104044 -5.348200798
19.39182091 -1.667258024 -5.284080029
19.12144089 -1.703140974 -5.211250782
18.87120056 -1.739238977 -5.14396286
18.75439072 -1.786522985 -5.113354206
18.63842964 -1.833201051 -5.083007812
18.54538918 -1.881520033 -5.058996201
18.51074982 -1.935400963 -5.051080227
18.45825958 -2.044487 -5.039997101
18.43195915 -2.156137943 -5.036303043
16.45776939 -2.027766943 -4.495891094
16.46965981 -2.080544949 -4.500905037
16.5110302 -2.1372509 -4.514098167
16.50247955 -2.187643051 -4.513569832
16.54538918 -2.245002031 -4.527291775
16.55275917 -2.297739983 -4.53125
16.54944992 -2.349054098 -4.532304764
16.56221008 -2.402723074 -4.537847042
16.57480049 -2.456491947 -4.54338789
16.5872097 -2.510360956 -4.548929214
16.5975399 -2.564033985 -4.553943157
16.60485077 -2.617345095 -4.558165073
16.61959076 -2.671947956 -4.564497948
16.63035011 -2.726042986 -4.569775105
16.63903999 -2.779911995 -4.574524879
16.64660072 -2.833697081 -4.579010963
16.65208054 -2.887224913 -4.582969189
16.65929031 -2.941148996 -4.587454796
16.66538048 -2.994973898 -4.591677189
16.66939926 -3.048516989 -4.59537077
16.67703056 -3.102818012 -4.600121021
16.68354988 -3.157016039 -4.604607105
16.68610001 -3.210553885 -4.608036995
16.69132042 -3.264692068 -4.612258911
16.69729996 -3.319081068 -4.616744995
16.7012291 -3.373155117 -4.62070322
16.71348 -3.429028988 -4.627036095
16.71986961 -3.483829021 -4.631784916
16.73175049 -3.539899111 -4.63811779
16.74250984 -3.595871925 -4.644186974
16.75024033 -3.651328087 -4.649465084
16.75497055 -3.706239939 -4.653951168
16.75857925 -3.761003971 -4.658173084
16.76483917 -3.816468 -4.663187027
16.76808929 -3.871355057 -4.66740799
16.7758503 -3.927396059 -4.672949791
16.77968025 -3.982630968 -4.677434921
16.78989029 -4.039505005 -4.683767796
16.7942791 -4.095108986 -4.688518047
16.79381943 -4.149620056 -4.691947937
16.77913094 -4.200654984 -4.691421032
16.75962067 -4.250452995 -4.689573765
16.73155975 -4.29801321 -4.685351849
16.67535019 -4.338156223 -4.673213005
16.60692978 -4.374802113 -4.657645226
16.41542053 -4.378264904 -4.607244968
16.36651993 -4.419054031 -4.597218037
16.28869057 -4.451704025 -4.579010963
16.18106079 -4.475690842 -4.552360058
16.12916946 -4.514656067 -4.5415411
19.4988308 -1.611302972 -5.433180809
19.23184967 -1.648645997 -5.359629154
19.10008049 -1.696387053 -5.324065208
18.84544945 -1.732046008 -5.254014015
18.65789986 -1.77253902 -5.202824116
18.59486961 -1.824126959 -5.186657906
18.53745079 -1.875928044 -5.172110081
18.49424934 -1.92889297 -5.16160202
18.47388077 -1.984079957 -5.157559872
18.4418602 -2.037889957 -5.150286198
18.42213058 -2.092936993 -5.146513939
16.2672596 -2.050486088 -4.546506882
16.38505936 -2.116430044 -4.581532001
16.45486069 -2.176798105 -4.603085995
16.51395035 -2.236191988 -4.621675968
16.51273918 -2.287638903 -4.623291969
16.53042984 -2.341801882 -4.630298138
16.53651047 -2.394438982 -4.634068966
16.54623985 -2.44769907 -4.638918877
16.56055069 -2.501760006 -4.645115852
16.56135941 -2.553877115 -4.647541046
16.57628059 -2.608268023 -4.654006958
16.58151054 -2.661248922 -4.657779217
16.58942986 -2.714752913 -4.662359238
16.5943203 -2.767854929 -4.66613102
16.60284042 -2.821657896 -4.670979977
16.61022949 -2.875375032 -4.675560951
16.62030029 -2.929666042 -4.680949211
16.62450981 -2.983025074 -4.684720993
16.63232994 -3.037128925 -4.689570904
16.64281082 -3.091836929 -4.695229053
16.65028 -3.146100998 -4.700078011
16.65851974 -3.200623035 -4.705196857
16.66753006 -3.255408049 -4.710586071
16.67540932 -3.310091972 -4.715704918
16.68404961 -3.365045071 -4.721094131
16.69252014 -3.420083046 -4.726481915
16.70269012 -3.475595951 -4.732409
16.70890999 -3.530406952 -4.737258911
16.71495056 -3.585289001 -4.742108822
16.72175026 -3.640446901 -4.747228146
16.72837067 -3.695679903 -4.752346992
16.73011017 -3.749933958 -4.756118774
16.73448944 -3.804873943 -4.760698795
16.74056053 -3.860310078 -4.765818119
16.74645996 -3.915817976 -4.770936966
16.75217056 -3.971399069 -4.776055813
16.75769997 -4.027051926 -4.781175137
16.76398087 -4.083003998 -4.78656292
16.76726913 -4.138339996 -4.791143894
16.75542068 -4.189994812 -4.79141283
16.74715996 -4.242562771 -4.792759895
16.73406029 -4.293922901 -4.792759895
16.68260002 -4.335309029 -4.781713963
16.59658051 -4.367349148 -4.760698795
16.44445038 -4.381295204 -4.720554829
16.30727005 -4.398363113 -4.684720993
16.20915985 -4.425285816 -4.66020298
16.07390976 -4.441386223 -4.624908924
16.00456047 -4.475115776 -4.608744144
15.91755009 -4.503479004 -4.587459087
15.81478024 -4.526844978 -4.561594009
15.68241978 -4.541049004 -4.527108192
20.33301926 -1.563537002 -5.791506767
19.28322983 -1.661453009 -5.494544029
19.13821983 -1.708124042 -5.454399109
18.85238075 -1.740921021 -5.373833179
18.62107086 -1.777189016 -5.308940887
18.57342911 -1.830160022 -5.296843052
18.50268936 -1.880522013 -5.278144836
18.49492073 -1.937077999 -5.277595043
18.45019913 -2.046919107 -5.268246174
18.43045998 -2.101989031 -5.264397144
18.43251038 -2.159529924 -5.266870975
16.03199959 -2.02798605 -4.580831051
16.0018692 -2.074071884 -4.573956013
15.85628033 -2.104681015 -4.533812046
16.42136955 -2.230990887 -4.698791981
16.4963398 -2.292745113 -4.722437859
16.51207924 -2.346590996 -4.729037762
16.51716995 -2.399035931 -4.732612133
16.52684975 -2.452239037 -4.73756218
16.53446007 -2.50523591 -4.741961002
16.54285049 -2.558449984 -4.74663496
16.54821014 -2.611289024 -4.750484943
16.5600605 -2.665254116 -4.756258965
16.56982994 -2.719006062 -4.761484146
16.57752991 -2.772525072 -4.766158104
16.58411026 -2.825954914 -4.770556927
16.59147072 -2.879616976 -4.775231838
16.59296989 -2.932346106 -4.778255939
16.59903908 -2.985961914 -4.782656193
16.60870934 -3.040335894 -4.788156033
16.60969925 -3.093214035 -4.791180134
16.62564087 -3.148988008 -4.798604012
16.63478088 -3.203617096 -4.804102898
16.64657974 -3.258886099 -4.810428143
16.65724945 -3.314069033 -4.816476822
16.65547943 -3.366872072 -4.818952084
16.67333031 -3.423757076 -4.827199936
16.67781067 -3.478034973 -4.831600189
16.69150925 -3.534363985 -4.838748932
16.69562912 -3.58878994 -4.843149185
16.70051003 -3.643477917 -4.847823143
16.70709038 -3.698647022 -4.853046894
16.70692062 -3.752413988 -4.856347084
16.71408081 -3.807924986 -4.86184597
16.71636963 -3.862432003 -4.865971088
16.72410011 -3.91830492 -4.87174511
16.72883987 -3.973594904 -4.876695156
16.73712921 -4.029851913 -4.882743835
16.74150085 -4.085285187 -4.887692928
16.74196053 -4.1398592 -4.891541958
16.73570061 -4.192839146 -4.893466949
16.72555923 -4.244873047 -4.894291878
16.71245956 -4.296165943 -4.894291878
16.6982708 -4.347177029 -4.89401722
16.55933952 -4.365296841 -4.856896877
16.44741058 -4.389797211 -4.82775116
16.32991028 -4.412147045 -4.796954155
16.24859047 -4.443708897 -4.776882172
16.20153046 -4.484303951 -4.766983032
15.79722023 -4.47692585 -4.655072212
15.70024014 -4.501519203 -4.630324841
15.60324955 -4.525558949 -4.605577946
15.53300953 -4.556897163 -4.588805199
15.5180397 -4.604257107 -4.588530064
15.4320097 -4.630290031 -4.567081928
20.00027084 -1.590806961 -5.826159954
19.68921089 -1.626873016 -5.736347198
19.33602905 -1.65744102 -5.634183884
19.07081032 -1.693665981 -5.557843208
18.82752991 -1.73029995 -5.487957001
18.66448021 -1.773079991 -5.441647053
18.61882973 -1.826398969 -5.429859161
18.54151917 -1.876266003 -5.408809185
18.52708054 -1.93224597 -5.406281948
18.47525978 -1.984158993 -5.392810822
18.45858955 -2.039670944 -5.389722824
18.46273994 -2.09748292 -5.392810822
18.46194077 -2.154783964 -5.39449501
18.57246017 -2.225456953 -5.429017067
15.95398998 -2.011126041 -4.661393166
15.88586998 -2.052071095 -4.643149853
15.79195976 -2.089220047 -4.617329121
15.66088009 -2.120789051 -4.580561161
15.48981953 -2.146043062 -4.532005787
16.51235962 -2.339338064 -4.835968018
16.51081085 -2.39081192 -4.837652206
16.5204792 -2.443983078 -4.842703819
16.52429962 -2.496376038 -4.846072197
16.53647995 -2.550131083 -4.851965904
16.54375076 -2.603239059 -4.856457233
16.54990005 -2.656264067 -4.860667229
16.55587959 -2.709350109 -4.864877224
16.55979919 -2.762182951 -4.868525028
16.56922913 -2.816030025 -4.873857975
16.57658958 -2.869632959 -4.878629208
16.58377075 -2.923307896 -4.883399963
16.58983994 -2.976883888 -4.887890816
16.59951019 -3.031214952 -4.893505096
16.59391022 -3.082828999 -4.894627094
16.60984039 -3.138535023 -4.90220499
16.62841034 -3.194911003 -4.910624981
16.63548088 -3.24922204 -4.915677071
16.6395607 -3.303046942 -4.919887066
16.6538105 -3.359014034 -4.927185059
16.65941048 -3.413366079 -4.931955814
16.67423058 -3.46973896 -4.939534187
16.67852974 -3.524053097 -4.94402504
16.68547058 -3.579030037 -4.949357033
16.69035912 -3.633673906 -4.954129219
16.6903801 -3.687346935 -4.95749712
16.69677925 -3.742522955 -4.962829113
16.69271088 -3.795432091 -4.965075016
16.70063019 -3.851155996 -4.9709692
16.72887039 -4.020174026 -4.990334988
16.6164093 -4.372622013 -4.983599186
16.46194077 -4.386023998 -4.940937042
16.35573959 -4.411515236 -4.91286993
16.28471947 -4.446001053 -4.895469189
16.18033981 -4.470890999 -4.867963791
15.8607502 -4.54012394 -4.783483028
15.7333498 -4.555929184 -4.748960972
15.50191975 -4.540511131 -4.682723999
15.41520977 -4.566514015 -4.660551071
15.27332973 -4.575501919 -4.621539116
15.21879959 -4.610095978 -4.609189034
15.12932968 -4.633718967 -4.586174011
15.11962986 -4.68153286 -4.58757782
20.14525986 -1.486727953 -5.984851837
20.33062935 -1.62588203 -6.043167114
19.31397057 -1.66396296 -5.741875172
19.16559982 -1.71044004 -5.698997021
18.89403915 -1.744665027 -5.619243145
18.68730927 -1.783426046 -5.558928013
18.57019043 -1.887307048 -5.527196884
18.5338192 -1.941079021 -5.518050194
18.49918938 -1.994850039 -5.509475231
18.48442078 -2.050645113 -5.506902218
18.47422981 -2.106910944 -5.505757809
18.46386909 -2.163132906 -5.50461483
18.4847393 -2.223086119 -5.512905121
18.53013992 -2.286236048 -5.528626919
15.91049957 -2.012767076 -4.743094921
15.81206989 -2.049628019 -4.715367794
15.68410969 -2.08199811 -4.678778172
15.52762032 -2.109733105 -4.63361311
15.37965012 -2.137713909 -4.591021061
15.25632954 -2.168312073 -4.555860043
15.23822021 -2.213454962 -4.552430153
16.51766968 -2.45097208 -4.940336227
16.52333069 -2.50364399 -4.944337845
16.52409935 -2.555643082 -4.946910858
16.52754021 -2.608118057 -4.950341225
16.5345993 -2.661247015 -4.954915047
16.54147911 -2.714443922 -4.959487915
16.54063988 -2.766443014 -4.961774826
16.5490799 -2.820072889 -4.966919899
16.55451012 -2.873287916 -4.971209049
16.55599976 -2.925896883 -4.974352837
16.56485939 -2.97989893 -4.979784012
16.56694984 -3.032774925 -4.983213902
16.58111954 -3.087971926 -4.990361214
16.58381081 -3.141144991 -4.994077206
16.59386063 -3.195812941 -5.000080109
16.60372925 -3.250571966 -5.006083012
16.61434937 -3.305608988 -5.012372017
16.61821938 -3.359412909 -5.016658783
16.63505936 -3.415968895 -5.024949074
16.64325905 -3.470900059 -5.030665874
16.23364067 -4.439706802 -4.97949791
16.09803963 -4.455756187 -4.941764832
15.63422966 -4.586730957 -4.819418907
15.54658985 -4.612873077 -4.796551228
15.29096985 -4.588133812 -4.721371174
15.12275982 -4.588294983 -4.673346996
15.05638981 -4.618653774 -4.657052994
20.38941002 -1.499719024 -6.182229042
20.38661957 -1.562412024 -6.182810783
19.42238045 -1.548410058 -5.889861107
19.11244965 -1.582707047 -5.796675205
19.10655022 -1.641253948 -5.796383858
19.03853989 -1.694264054 -5.777164936
18.77603912 -1.728965044 -5.698540211
18.65065002 -1.775131941 -5.661849022
18.61465073 -1.829347014 -5.652530193
18.55755997 -1.88123405 -5.636805058
18.51840019 -1.934677958 -5.62661314
18.50381088 -1.990561008 -5.623991966
18.46653938 -2.101247072 -5.616421223
18.4684906 -2.216341019 -5.621079922
18.5024395 -2.278019905 -5.633602142
16.14912987 -2.038448095 -4.913746834
16.17885017 -2.092648983 -4.924812794
16.11260986 -2.134356022 -4.906466961
15.4177599 -2.090413094 -4.695054054
15.28997993 -2.120871067 -4.65778017
15.17162991 -2.151909113 -4.623417854
15.06365967 -2.183751106 -4.59225893
16.50175095 -2.547626019 -5.041584969
16.50613976 -2.60017705 -5.045371056
16.51037025 -2.652779102 -5.049157143
16.51254082 -2.70512104 -5.052360058
16.51264954 -2.75718689 -5.054981232
16.51919937 -2.810401917 -5.059639931
16.52652931 -2.863847017 -5.064590931
16.53084946 -2.916863918 -5.068666935
16.53689003 -2.970273972 -5.073327065
16.54276085 -3.023746967 -5.077985764
16.54751015 -3.077110052 -5.082354069
16.55397034 -3.130886078 -5.087305069
20.3654995 -1.499629021 -6.307500839
20.33319092 -1.559983015 -6.298892021
19.22507095 -1.534289002 -5.954813004
19.06611061 -1.580481052 -5.906720161
18.92416954 -1.627184987 -5.863969803
18.61560059 -1.773391008 -5.772531986
18.59391975 -1.828904986 -5.767486095
18.52362061 -1.879385948 -5.747297764
18.49938965 -1.991680026 -5.743439198
18.61483002 -2.235513926 -5.787672997
18.67042923 -2.300321102 -5.807267189
16.1811409 -2.043987989 -5.029454231
16.16058922 -2.091782093 -5.025001049
15.72620964 -2.084624052 -4.890813828
15.69987011 -2.1301651 -4.884580135
15.20331955 -2.110301018 -4.730797768
15.07761955 -2.187231064 -4.695469856
16.47020912 -2.59603405 -5.14256382
16.49139023 -2.651251078 -5.151766777
16.49072075 -2.703068972 -5.154141903
16.49554062 -2.755852938 -5.158298016
16.49736023 -2.808209896 -5.161563873
16.50371933 -2.861421108 -5.166314125
16.50427055 -2.913700104 -5.16928196
16.51498985 -2.96786809 -5.175517082
20.35021019 -1.493036032 -6.427710056
19.86554909 -1.518776059 -6.275096893
20.08410072 -1.597473025 -6.346115112
19.00085068 -1.570009947 -6.003114223
18.80028915 -1.611529946 -5.940859795
18.68321991 -1.659253001 -5.905200005
18.60305023 -1.709674001 -5.881326199
18.58064079 -1.765117049 -5.875885963
18.54571915 -1.819229007 -5.866518021
18.54290009 -1.876405954 -5.867424011
18.53705025 -1.933285952 -5.867424011
18.54524994 -1.991673946 -5.871956825
18.53904915 -2.048561096 -5.871956825
18.51942062 -2.10392189 -5.867726803
18.53087044 -2.162827969 -5.873467922
18.53834915 -2.221369982 -5.878002167
18.60713005 -2.287539005 -5.902177811
16.25264931 -2.048765898 -5.152109146
15.9579401 -2.061378956 -5.059937
15.83625031 -2.095077991 -5.023067951
15.74473 -2.132143021 -4.995870113
15.58325958 -2.158986092 -4.946308136
15.5265398 -2.199698925 -4.930291176
15.1140604 -2.188591957 -4.80034399
16.48607063 -2.697927952 -5.254858017
16.48711967 -2.750061989 -5.257880211
16.49081993 -2.802706957 -5.261807919
16.49154091 -2.854912996 -5.264831066
16.49303055 -2.907315016 -5.268155098
16.49905014 -2.960593939 -5.272990227
20.00341034 -1.59622097 -6.440190792
20.00695038 -1.658290982 -6.442956924
18.65329933 -1.661471963 -6.007432938
18.58937073 -1.713281035 -5.988377094
18.69959068 -1.781306028 -6.025874138
18.73381042 -1.842576981 -6.038783073
18.52452087 -1.879405022 -5.972702026
18.49880028 -1.934152007 -5.966247082
18.50696945 -1.992423058 -5.970857143
18.50738907 -2.049925089 -5.973009109
18.50573921 -2.107234001 -5.974545002
18.49823952 -2.163887978 -5.974237919
18.52552986 -2.224711895 -5.985302925
16.04270935 -2.026640892 -5.181566238
15.92033958 -2.060832024 -5.143761158
15.81299973 -2.096292019 -5.110874176
15.6575098 -2.12458992 -5.062311172
15.56702995 -2.160978079 -5.034955978
15.51228046 -2.201910019 -5.01928091
15.23799038 -2.210709095 -4.931992054
16.46717072 -2.803167105 -5.353991985
16.46974945 -2.855624914 -5.357680798
16.4721508 -2.90812397 -5.361369133
16.47064972 -2.959991932 -5.363828182
18.62480927 -1.711753011 -6.122429848
18.66485023 -1.773200035 -6.137454033
18.60260963 -1.824887991 -6.118673801
18.49770927 -1.871904016 -6.085810184
18.46731949 -1.926082969 -6.077672005
18.49814987 -1.986688018 -6.089879036
18.47240067 -2.098650932 -6.085495949
18.47248077 -2.156085014 -6.087687016
18.49501038 -2.216253042 -6.097391129
15.9905901 -2.015592098 -5.270136833
15.95324993 -2.060623884 -5.259808064
15.79337978 -2.089245081 -5.208788872
15.64667034 -2.11868906 -5.162151814
15.5883503 -2.159511089 -5.144937992
15.41991043 -2.184400082 -5.091102123
15.30692005 -2.216310978 -5.055733204
15.13094044 -2.238231897 -4.999392986
15.01412964 -2.268037081 -4.962771893
16.44111061 -2.898066998 -5.460439205
16.44054985 -2.950004101 -5.463255882
18.61768913 -1.658382058 -6.234344006
18.61535072 -1.715754032 -6.23529911
18.61282921 -1.773126006 -6.236254215
18.61484909 -1.830963969 -6.238800049
18.50728035 -1.877727985 -6.204423904
18.45994949 -1.930160046 -6.190419197
18.5054493 -2.107274055 -6.212062836
18.52103043 -2.281909943 -6.22415781
15.90870953 -2.00956893 -5.342473984
16.00400925 -2.071511984 -5.376850128
15.81995964 -2.097053051 -5.316691875
15.66127014 -2.124927044 -5.265128136
15.50726032 -2.152498007 -5.215155125
15.38514042 -2.183675051 -5.176003933
15.22826004 -2.209086895 -5.125076771
15.1051302 -2.238559961 -5.085608006
18.60548973 -1.658892035 -6.33557415
18.57110023 -1.713271022 -6.325558186
18.55540085 -1.769250035 -6.322003841
18.55835915 -1.827003002 -6.324912071
18.52253914 -1.880872011 -6.314572811
18.50727081 -1.936704993 -6.311341763
18.49653053 -1.992967963 -6.309726238
18.50416946 -2.281435013 -6.323618889
15.95767021 -2.067003012 -5.451918125
15.69711971 -2.131270885 -5.366621971
15.51896954 -2.155596018 -5.307496071
15.30801964 -2.174191952 -5.237061977
15.21699047 -2.208913088 -5.207983971
15.04913044 -2.23171401 -5.152411938
19.54965019 -1.496265054 -6.774650097
19.46305084 -1.549718022 -6.746081829
19.21533966 -1.589349985 -6.661362171
18.53440094 -1.647632003 -6.427231789
18.51139069 -1.702844024 -6.420992851
18.50138092 -1.759181023 -6.419352055
18.37181091 -1.803760052 -6.376006126
18.37933922 -1.861446977 -6.380602837
18.36885071 -1.917335033 -6.37896204
18.28492928 -1.965307951 -6.351706982
15.51867962 -2.151511908 -5.405010223
19.50443077 -1.494750977 -6.885369778
19.46591949 -1.551884055 -6.873353004
19.2919693 -1.597584009 -6.813268185
18.99020004 -1.63125205 -6.70778513
18.51283073 -1.647447944 -6.539879799
18.47764969 -1.701468945 -6.52919817
18.44325066 -1.755378962 -6.51884985
18.24827957 -1.793318987 -6.451420784
18.25019073 -1.850056052 -6.454092026
18.20787048 -1.902215958 -6.441072941
18.15976906 -1.953528047 -6.426052094
18.84004974 -1.619950056 -6.76971817
18.5904007 -1.655951023 -6.681264877
18.55900002 -1.710559011 -6.671775818
18.50495911 -1.762848973 -6.65415287
18.61487007 -1.656455994 -6.804421902
18.58632088 -1.711405993 -6.795822144
18.13806915 -1.894880056 -6.638964176
16.30768013 -2.415412903 -5.997426987
18.5435791 -1.648447037 -6.888838768
18.51042938 -1.702756047 -6.878372192
16.47410965 -2.129554033 -6.142195225
16.52231026 -2.187339067 -6.162779808
16.38087082 -2.219779968 -6.112188816
16.42596054 -2.277229071 -6.131728172
16.37620926 -2.321563959 -6.115677834
16.35881042 -2.370316982 -6.111839771
16.34859085 -2.471349001 -6.113584995
18.71541977 -1.662199974 -7.072649956
15.49176025 34.39477158 -7.724500179
40.72774124 -8.762590408 -3.643811941
40.57088089 -8.846975327 -3.894834995
40.54537964 -8.858882904 -4.13394022
40.8463707 -8.770547867 -4.434219837
40.88705826 -8.796870232 -4.690158844
40.94015884 -8.798670769 -5.222180843
39.75535965 -9.443628311 -5.588051796
39.83610153 -9.336420059 -5.850279808
39.78704071 -9.453785896 -5.847288132
40.84452057 -8.785574913 -6.235146046
39.99195862 -9.246239662 -6.125256062
39.93547821 -9.362344742 -6.120948792
39.91714859 -9.487336159 -6.122581959
39.97130966 -9.348125458 -6.389591217
39.95109177 -9.472762108 -6.390984058
