# .PCD v0.7 - Point Cloud Data file format
VERSION 0.7
FIELDS x y z
SIZE 4 4 4
TYPE F F F
COUNT 1 1 1
WIDTH 51
HEIGHT 1
VIEWPOINT 0 0 0 1 0 0 0
POINTS 51
DATA ascii
-17.94285965 -4.443418026 -6.050440788
-17.91950035 -4.379333019 -6.037920952
-17.92453957 -4.322331905 -6.035103798
-17.93401909 -4.266440868 -6.0338521
-17.92852974 -4.207061768 -6.027592182
-17.92561913 -4.148398876 -6.022271156
-17.91790009 -4.088737011 -6.015385151
-17.92572021 -4.03270483 -6.013820171
-17.92596054 -3.975018024 -6.009750843
-17.94642067 -3.921828032 -6.012567997
-17.9500103 -3.864952087 -6.009750843
-17.95899963 -3.809273005 -6.008811951
-17.9557209 -3.751050949 -6.003804207
-17.9559803 -3.693650007 -6.000048161
-17.93465042 -3.631948948 -5.989092827
-17.94384956 -3.576538086 -5.988467216
-17.96497917 -3.523479939 -5.991909981
-17.8586998 -3.611730099 -6.07614994
-17.86226082 -3.555443048 -6.073604107
14.96020985 30.87714958 -6.804123878
14.97786045 30.46492958 -6.947568893
12.39490032 34.3220787 -7.690384865
14.5370903 30.00889015 -7.218481064
14.70495987 30.6164608 -7.577205181
14.65723991 30.0433197 -7.456851006
24.86749077 -38.75207901 -6.588488102
24.76551056 -38.85490036 -6.593046188
24.66206932 -38.95578003 -6.59732008
21.19145012 -38.7509613 -6.877702236
30.94445038 -27.88060951 -5.95626688
40.69950104 -8.756513596 -3.641259909
40.61075974 -8.855670929 -3.898699999
40.61341858 -8.873747826 -4.140941143
40.78602982 -8.775133133 -4.678475857
40.78237152 -8.769555092 -4.936099052
39.78427124 -9.450496674 -5.592144012
39.85440826 -9.34071064 -5.852985859
39.79571152 -9.455845833 -5.84856987
40.1591301 -9.672450066 -5.906692028
39.97172928 -9.24156189 -6.12213707
39.93162918 -9.361441612 -6.120355129
39.913311 -9.486421585 -6.121988773
39.98151016 -9.221231461 -6.386651993
39.9770813 -9.349474907 -6.390520096
39.93090057 -9.467975616 -6.38773489
36.77487183 9.934800148 -6.856204033
36.80231857 9.8211689 -6.855669022
36.78945923 9.696929932 -6.847653866
36.9199791 9.61028862 -6.866535187
36.96263123 9.500403404 -6.869028091
36.97042847 10.48237038 -6.688514233
