# .PCD v0.7 - Point Cloud Data file format
VERSION 0.7
FIELDS x y z
SIZE 4 4 4
TYPE F F F
COUNT 1 1 1
WIDTH 152
HEIGHT 1
VIEWPOINT 0 0 0 1 0 0 0
POINTS 152
DATA ascii
-22.48483086 -7.591282845 -7.48239994
-22.67946053 -6.965665817 -7.480285168
-22.70801926 -6.89827013 -7.482701778
-22.74641991 -6.833782196 -7.488443851
-22.77549934 -6.766407967 -7.491164207
-22.80163956 -6.698113918 -7.492977142
-22.8835392 -6.569918156 -7.506577015
-22.35470009 -7.770988941 -7.602921009
-22.37574005 -7.701439857 -7.601998806
-22.41186905 -7.637053967 -7.606301785
-22.44061089 -7.570085049 -7.608146191
-22.44927979 -7.496378899 -7.603229046
-22.46314049 -7.424483776 -7.600154877
-22.48399925 -7.354940891 -7.599540234
-22.61739922 -6.940395832 -7.600154877
-22.64495087 -6.872910023 -7.602305889
-22.68143082 -6.808054924 -7.607532024
-22.73778915 -6.748999119 -7.619517803
-22.76843071 -6.68215704 -7.622899055
-22.83736038 -6.550461769 -7.632427216
-22.38109016 -7.326959133 -7.719658852
-22.39035988 -7.178186893 -7.70745182
-22.4050293 -7.107163906 -7.704947948
-22.42400932 -7.037539005 -7.70401001
-22.44911957 -6.969837189 -7.70526123
-22.65049934 -6.880259991 -7.760035992
-22.61783981 -6.794617176 -7.741569042
-22.66407013 -6.732767105 -7.750332832
-22.71924973 -6.673371792 -7.762227058
-22.69309998 -6.59013319 -7.746263981
-22.75703049 -6.533058167 -7.761288166
-22.2553997 -7.812540054 -7.878032207
-22.27120018 -7.741424084 -7.875167847
-22.29574966 -7.673367977 -7.875485897
-22.24379921 -7.579247952 -7.848749161
-22.26066971 -7.508849144 -7.846520901
-22.25752068 -7.43181181 -7.83728981
-22.26221085 -7.357542992 -7.830924988
-22.27387047 -7.285672188 -7.827105045
-22.29161072 -7.215843201 -7.825512886
-22.3046093 -7.144526958 -7.822329998
-22.32372093 -7.075204849 -7.821374893
-22.34803009 -7.007534981 -7.822329998
-22.37033081 -6.939218998 -7.822649002
-22.40147972 -6.873613834 -7.82614994
-22.44514084 -6.811738014 -7.834106922
-22.48682022 -6.749112129 -7.841427803
-22.54014015 -6.68980217 -7.852887154
-22.58057022 -6.626490116 -7.859889984
-22.65996933 -6.574350834 -7.880578995
-22.69370079 -6.508720875 -7.885353088
-22.23839951 -7.499437809 -7.970740795
-22.26129913 -7.431176186 -7.970740795
-22.24625015 -7.350374222 -7.957170963
-22.26600075 -7.281207085 -7.95620203
-22.28372955 -7.211403847 -7.954586029
-22.30215073 -7.141849995 -7.9532938
-22.28606033 -7.061388016 -7.939723969
-22.29858971 -6.990150928 -7.93649292
-22.32806015 -6.924230099 -7.93940115
-22.35824966 -6.858470917 -7.942632198
-22.38009071 -6.790120125 -7.942955017
-22.43617058 -6.73203516 -7.955554962
-22.58262062 -6.550035 -7.985926151
-22.67720032 -6.502110958 -8.012419701
14.98303986 30.47547913 -6.949987888
14.84467983 31.39620018 -7.316957951
14.79598999 31.27375984 -7.491148949
14.54611969 30.26383018 -7.269313812
14.55455017 30.04495049 -7.227200985
14.66724014 30.04229927 -7.237411022
14.69849014 30.36392975 -7.52556181
14.65981007 30.04858017 -7.458164215
30.44421959 -39.26787186 -7.112726212
24.00453949 -30.55470085 -6.763526917
23.85644913 -30.75278091 -6.774909019
23.80228996 -30.87809944 -6.786462784
31.22223091 -29.53330994 -5.627435207
31.1313591 -29.81142044 -5.644033909
30.94886017 -27.88458061 -5.957121849
24.45536995 -27.3107605 -6.821561813
28.96969986 9.662835121 -6.051832199
28.97127914 9.564687729 -6.045963764
28.97002983 8.310879707 -6.163581848
28.78245926 8.350564957 -6.308791161
28.80699921 8.2619524 -6.308582783
28.81715965 8.169266701 -6.305267811
28.54072952 8.272882462 -6.428553104
27.49272919 9.553108215 -6.668949127
27.46939087 9.450649261 -6.656146049
27.49271965 9.364444733 -6.654798985
27.46867943 9.262309074 -6.641994953
27.4858799 9.174291611 -6.63929987
27.48706055 9.081059456 -6.632785797
27.46940994 8.98184967 -6.621779919
27.47179985 8.889432907 -6.615715981
27.65430069 8.482133865 -6.62762022
27.69977951 8.403191566 -6.632337093
27.78142929 8.334970474 -6.645813942
27.85264969 8.263277054 -6.65681982
27.8554306 8.171206474 -6.651429176
27.98237991 8.115288734 -6.675911903
27.33629036 9.496599197 -6.800942898
27.32571983 9.399077415 -6.791050911
27.32336998 9.117916107 -6.769196033
27.3040905 9.018480301 -6.757462978
27.31497955 8.929227829 -6.753323078
27.3283596 8.840890884 -6.749872208
27.34885979 8.754929543 -6.748260975
27.36445999 8.667458534 -6.745501041
27.40299988 8.587247849 -6.74849081
27.44129944 8.506881714 -6.75148201
27.62656021 8.286389351 -6.778168201
27.65092087 8.201316833 -6.777937889
27.70022964 8.123566628 -6.783918858
27.84653091 8.073773384 -6.813826084
27.20450974 9.448672295 -6.948400021
27.21039963 9.357265472 -6.942504883
27.20862007 9.263403893 -6.9347229
27.19092941 8.886548042 -6.901708126
27.27063942 8.635620117 -6.901473045
27.30998993 8.555981636 -6.904774189
27.32311058 8.468128204 -6.901473045
27.38147926 8.394231796 -6.909726143
27.41082954 8.311314583 -6.91066885
27.46039963 8.234437943 -6.916800022
27.50416946 8.155677795 -6.921516895
27.54585075 8.076180458 -6.925762177
27.17244911 9.435388565 -7.11025095
27.17557907 9.343144417 -7.103496075
27.13767052 9.144300461 -7.07864809
27.16559982 9.06099987 -7.07864809
27.29921913 8.458605766 -7.064414978
27.36865044 8.388180733 -7.075753212
27.40818024 8.3083992 -7.079370975
27.43261909 8.223994255 -7.079130173
15.55346966 34.25075912 -7.702727795
40.57574081 -8.848035812 -3.89530611
40.62216949 -8.875658989 -4.141840935
40.73106003 -8.615146637 -4.418681145
40.80643082 -8.779521942 -4.68083477
39.82947922 -9.332238197 -5.594462872
39.80450821 -9.455305099 -5.59500885
39.85343933 -9.340484619 -5.852844238
39.80244827 -9.457447052 -5.849566936
39.93510818 -9.23309803 -6.116494179
39.89793015 -9.353542328 -6.115158081
39.8757782 -9.47750473 -6.116197109
40.00268936 -9.22611618 -6.39005518
39.98669815 -9.351724625 -6.392066002
39.94916916 -9.472306252 -6.390674114
40.13259888 -9.273471832 -6.647347927
