# .PCD v0.7 - Point Cloud Data file format
VERSION 0.7
FIELDS x y z
SIZE 4 4 4
TYPE F F F
COUNT 1 1 1
WIDTH 466
HEIGHT 1
VIEWPOINT 0 0 0 1 0 0 0
POINTS 466
DATA ascii
-14.51078033 -11.9886198 -6.623664856
-14.60286999 -11.98950005 -6.649034977
-14.70386028 -11.99707985 -6.678410053
-14.76183033 -11.96912956 -6.688089848
-14.83592033 -11.95394039 -6.705113888
-14.96082973 -11.97906017 -6.74517107
-13.73066998 -11.9950304 -6.525709152
-13.79510975 -11.97690964 -6.538926125
-13.88379002 -11.97939014 -6.563665867
-13.96619034 -11.97593975 -6.585356236
-14.04868984 -11.97208977 -6.607045174
-14.14566994 -11.97999954 -6.635512829
-14.23130035 -11.97774029 -6.658557892
-14.33076954 -11.98653984 -6.688043118
-14.39931011 -11.96897984 -6.702954769
-14.51937962 -11.99365044 -6.741929054
-14.60046959 -11.98546028 -6.762600899
-14.69184017 -11.98521042 -6.78801918
-14.7723999 -11.97562981 -6.808352947
-14.86182022 -11.97274017 -6.832754135
-14.92418957 -11.94766998 -6.844614983
-15.00199986 -11.93463039 -6.863594055
-13.21008968 -11.97817039 -6.490705013
-13.27886009 -11.96650982 -6.506527901
-13.35118008 -11.95765972 -6.52407217
-13.42568016 -11.9503603 -6.542646885
-13.50658989 -11.9483099 -6.564319134
-13.57631969 -11.93595028 -6.580485821
-13.65742016 -11.93317032 -6.602157116
-13.73153973 -11.92383957 -6.620388985
-13.8242197 -11.93012047 -6.647562981
-13.93914986 -11.95489979 -6.685401917
-14.02721977 -11.95592976 -6.710168839
-14.0924902 -11.93712044 -6.723927975
-14.23248959 -11.98089981 -6.773462772
-14.29582024 -11.95948029 -6.786190987
-14.39958954 -11.97138977 -6.818181038
-14.48186016 -11.9648304 -6.839851856
-14.56494045 -11.95847988 -6.861866951
-14.67358971 -11.97251034 -6.895922184
-14.76348972 -11.97060966 -6.921032906
-14.84694004 -11.96296024 -6.943048
-14.90921974 -11.93789959 -6.955088139
-14.9758997 -11.91606998 -6.969192028
-13.00774956 -11.94303036 -6.532264233
-13.07754993 -11.93338966 -6.54901123
-13.15991974 -11.93476963 -6.572039127
-13.22570992 -11.92070007 -6.586691856
-13.32643032 -11.93758965 -6.618791103
-13.3811903 -11.91285992 -6.627861977
-13.47873974 -11.9257803 -6.658216
-13.5384903 -11.90478992 -6.669730186
-13.67584991 -11.9513998 -6.719623089
-13.7287302 -11.92352009 -6.727647781
-13.80992985 -11.91991997 -6.749628067
-13.93249989 -11.95133018 -6.791844845
-13.99619961 -11.93163967 -6.805102825
-14.08780003 -11.93529034 -6.831967831
-14.18455982 -11.94272041 -6.86127615
-14.27719975 -11.94606018 -6.8884902
-14.35916996 -11.93994999 -6.910470963
-14.44414043 -11.93583965 -6.933846951
-14.53789997 -11.93846035 -6.961410046
-14.63980007 -11.9471302 -6.992811203
-14.73388958 -11.94880009 -7.020373821
-14.79236984 -11.92119026 -7.030840874
-14.89031029 -11.92496014 -7.060149193
-14.96936035 -11.91306973 -7.080385208
-13.16320038 -11.93984032 -6.687358856
-13.21226978 -11.91067028 -6.693734169
-13.28845978 -11.90565014 -6.713919163
-13.38010025 -11.91394997 -6.741895199
-13.4453001 -11.89824963 -6.756413937
-13.53652 -11.9051199 -6.784037113
-13.61804962 -11.90291977 -6.806701183
-13.6905098 -11.89235973 -6.824760914
-13.7913599 -11.90590954 -6.856987
-13.88673019 -11.91407967 -6.886378765
-14.05519009 -11.90966034 -6.933833122
-14.17321014 -11.93515015 -6.97420311
-14.2226696 -11.90240955 -6.980576992
-14.33463001 -11.92150021 -7.01776123
-14.41798973 -11.91619015 -7.040779114
-14.51375008 -11.92057037 -7.06981802
-14.60676003 -11.9221096 -7.097438812
-14.72824955 -11.94616032 -7.1388731
-14.78668022 -11.91851997 -7.149496078
-14.8691597 -11.90993023 -7.171805859
-14.9502697 -11.89978027 -7.193408012
-13.50039005 -11.87543964 -6.881289005
-14.03991032 -11.89885044 -7.04443121
-14.13416004 -11.90441036 -7.073537827
-14.5575304 -11.95870972 -7.212244987
-14.59704018 -11.9163599 -7.213683128
12.48272038 34.23609924 -7.679608822
14.52410984 30.21804047 -7.258254051
14.54730988 30.03000069 -7.223586082
14.66038036 30.02824974 -7.234007835
14.6082201 30.41503906 -7.527093887
14.59136009 30.14259911 -7.470417976
14.57065964 30.08332062 -7.861701965
31.1991806 -29.51151085 -5.623252869
31.19079018 -29.86833 -5.654881954
24.3567009 -28.95395088 -6.340299129
24.24183083 -28.99752045 -6.333483219
24.58595085 -26.78772926 -6.765457153
24.17865944 -27.0017395 -6.743935108
24.0872097 -27.06624985 -6.741542816
32.4856987 -0.8910862207 -4.245944023
28.69095039 -0.4456912875 -4.270343781
28.56685066 -0.5314360261 -4.251930237
28.74274063 -2.214452982 -4.290390968
28.77434921 -2.48348999 -4.298409939
28.77939987 -2.572901011 -4.300341129
28.78811073 -2.662730932 -4.302865982
28.80932999 -2.753859997 -4.307321072
28.80468941 -2.842622042 -4.307915211
28.47291946 -0.426325798 -4.420591831
28.48333931 -0.5138918757 -4.422449112
28.4648304 -0.6009199023 -4.419817924
28.47174072 -0.6884611845 -4.421210766
28.44875908 -0.7752420902 -4.417962074
28.46105957 -0.8629677296 -4.420282841
28.45433044 -0.9501488805 -4.419663906
28.47793961 -1.038414001 -4.423841
28.48448944 -1.126168966 -4.425387859
28.51050949 -1.214815974 -4.430028915
28.52737999 -1.303226948 -4.433279037
28.5508709 -1.392089963 -4.437610149
28.56027985 -1.480393052 -4.439775944
28.57731056 -1.569200039 -4.443180084
28.58814049 -1.657781959 -4.445654869
28.60560036 -1.746868014 -4.449213982
28.62870026 -1.836454988 -4.453700066
28.6317997 -1.924875021 -4.455091953
28.65040016 -2.014441013 -4.458960056
28.66871071 -2.104137897 -4.462828159
28.68083954 -2.193515062 -4.465766907
28.70253944 -2.283770084 -4.470253944
28.72591972 -2.374341011 -4.475049973
28.74704933 -2.464909077 -4.47953701
28.76198006 -2.555103064 -4.483095169
28.76482964 -2.644326925 -4.484797001
28.76837921 -2.73368597 -4.486652851
28.76478004 -2.822416067 -4.487427235
28.76581001 -2.911647081 -4.488974094
28.41585922 -0.4373993874 -4.574347019
28.4331398 -0.5249223709 -4.577392101
28.42152977 -0.611939013 -4.575788975
28.44319916 -0.6997150183 -4.579635143
28.49123955 -0.7883673906 -4.587806225
28.5685997 -0.878231287 -4.600783825
28.55393982 -0.9654740095 -4.598862171
28.59127998 -1.054563999 -4.60543108
28.5908699 -1.142393947 -4.605912209
28.57342911 -1.22950995 -4.603669167
28.61388969 -1.319213033 -4.610877991
28.63533974 -1.408252954 -4.615045071
28.63975906 -1.496562004 -4.616487026
28.6478405 -1.585129976 -4.618568897
28.6566391 -1.673818946 -4.620811939
28.67107964 -1.762940049 -4.624016762
28.65370941 -1.850129962 -4.622095108
28.68532944 -1.94056201 -4.628182888
28.69301987 -2.029534101 -4.63042593
28.68173981 -2.117189884 -4.629624844
28.72628021 -2.209110022 -4.637957096
28.77152061 -2.301403046 -4.646449089
28.7908802 -2.391869068 -4.650774956
28.75391006 -2.477643967 -4.64596796
28.74715042 -2.565936089 -4.646128178
28.73226929 -2.653482914 -4.645007133
28.76820946 -2.745841026 -4.652216911
28.72920036 -2.831087112 -4.647250175
28.71841049 -2.919013977 -4.646928787
28.68021011 -0.3554920852 -4.796977997
28.41375923 -0.4393823147 -4.752254963
28.40044975 -0.5263332725 -4.750259876
28.46968079 -0.6149945855 -4.762230873
28.45977974 -0.7021409869 -4.760900021
28.44762993 -0.7891777158 -4.759237766
28.50421906 -0.8782715201 -4.7692132
28.54475021 -0.9671856761 -4.776527882
28.54953003 -1.055045962 -4.77785778
28.56093979 -1.143221974 -4.780352116
28.5740509 -1.231562018 -4.783177853
28.59672928 -1.320446968 -4.787666798
28.61618042 -1.409337997 -4.791656971
28.62648964 -1.497897983 -4.794150829
28.64538956 -1.587023973 -4.798141003
28.65909004 -1.675992966 -4.801300049
28.67941093 -1.765485048 -4.805623055
28.69255066 -1.854671955 -4.808781147
28.69263077 -1.943091035 -4.809779167
28.70521927 -2.032432079 -4.812938213
28.73524094 -2.123177052 -4.819088936
28.73743057 -2.212007046 -4.820584774
28.73641014 -2.300632954 -4.821582794
28.73707962 -2.389437914 -4.82291317
28.75123024 -2.479454994 -4.826570988
28.73955917 -2.567300081 -4.825904846
28.74921989 -2.657093048 -4.828897953
28.74191093 -2.745374918 -4.829063892
28.70685959 -2.830929041 -4.824574947
28.68234062 -2.917391062 -4.82191515
28.37925911 -0.4309589863 -4.92992115
28.39749908 -0.5183820724 -4.933370113
28.42139053 -0.6060469151 -4.937852859
28.40757942 -0.6929519176 -4.935783863
28.4525795 -0.7813978791 -4.944062233
28.49139977 -0.8699464798 -4.951303959
28.53585052 -0.9589387774 -4.959580898
28.54162979 -1.046805978 -4.961133003
28.54615974 -1.134678006 -4.96251297
28.59273911 -1.224398017 -4.971308231
28.6104908 -1.313105941 -4.975100994
28.61517906 -1.401309013 -4.976654053
28.59600067 -1.488325 -4.974067211
28.60802078 -1.576971054 -4.976997852
28.63549042 -1.666618943 -4.982688904
28.64401054 -1.755306005 -4.985104084
28.65617943 -1.844315052 -4.988206863
28.67103004 -1.933612943 -4.991828918
28.68264961 -2.02281189 -4.994933128
28.68810081 -2.111666918 -4.997002125
28.70406914 -2.201401949 -5.000967979
28.7040596 -2.290003061 -5.002174854
28.70573044 -2.378786087 -5.003726959
28.7238102 -2.46903491 -5.008211136
28.70726967 -2.55636096 -5.006659031
28.74342918 -2.648487091 -5.014419079
28.73222923 -2.736377954 -5.013902187
28.68547058 -2.820756912 -5.007175922
28.65414047 -2.9064641 -5.003210068
28.59141922 -0.3503476977 -5.136679173
28.3319397 -0.5210418105 -5.090190887
28.39219093 -0.6092932224 -5.101411819
28.41477966 -0.6970006227 -5.105865002
28.41152954 -0.7841454148 -5.105687141
28.48864937 -0.8737537265 -5.12011385
28.50649071 -0.9618492126 -5.123855114
28.48866081 -1.04875803 -5.121182919
28.50201988 -1.136821985 -5.124210835
28.54067039 -1.226078033 -5.131869793
28.55937958 -1.314674973 -5.135965824
28.55620003 -1.402336001 -5.136145115
28.54880905 -1.489784956 -5.135610104
28.59322929 -1.580080986 -5.144515991
28.62557983 -1.669975042 -5.151284218
28.6321106 -1.758514047 -5.153421879
28.64425087 -1.847488999 -5.156628132
28.64434052 -1.935757995 -5.15769577
28.65494919 -2.02480793 -5.160724163
28.67313957 -2.114521027 -5.165176868
28.67141914 -2.202856064 -5.166068077
28.68512917 -2.292454958 -5.169807911
28.69071007 -2.381508112 -5.172123909
28.69601059 -2.470616102 -5.174438953
28.67654037 -2.557593107 -5.172301769
28.71558952 -2.649902105 -5.180850983
28.70144081 -2.737426996 -5.179782867
28.66254997 -2.822478056 -5.174261093
28.62340927 -2.907315969 -5.168739796
25.12858009 -3.176995993 -4.545691967
33.08768845 -0.09751656651 -6.153082848
28.29817009 -0.517490983 -5.257606983
28.51067924 -0.6088842154 -5.297708988
28.37799072 -0.6931567788 -5.27324295
28.37867928 -0.7802972198 -5.273796082
28.41839981 -0.8686499 -5.281704903
28.4617691 -0.9573860168 -5.290350914
28.47834015 -1.045421958 -5.29403019
28.49563026 -1.133609056 -5.297893047
28.51165962 -1.221868992 -5.301571846
28.53624916 -1.310644031 -5.306907177
28.53897095 -1.398522019 -5.30819416
28.56497002 -1.487656951 -5.313897133
28.57597923 -1.57615304 -5.316840172
28.57885933 -1.664271951 -5.318312168
28.58930969 -1.752905965 -5.321255207
28.60733986 -1.842125058 -5.325669765
28.60548019 -1.930147052 -5.326406002
28.58569908 -2.016928911 -5.323830128
28.58230972 -2.104835987 -5.324381828
28.59041977 -2.193644047 -5.327140808
28.60511017 -2.283067942 -5.331188202
28.62344933 -2.372929096 -5.335970879
28.6865406 -2.466797113 -5.349215984
28.63085938 -2.550519943 -5.340201855
28.62388039 -2.638437033 -5.340385914
28.62055016 -2.726706982 -5.34130621
28.59542084 -2.812865019 -5.338178158
28.56904984 -2.898794889 -5.334867001
28.28083992 -0.524118185 -5.42309618
28.23884964 -0.61001122 -5.415320873
28.32715034 -0.6988705993 -5.432765007
28.34254074 -0.7862635851 -5.436179161
28.34490013 -0.873364687 -5.437127113
28.39703941 -0.9621828198 -5.447744846
28.41357994 -1.050024033 -5.451537132
28.46124077 -1.139232039 -5.461397171
28.47723007 -1.227390051 -5.46518898
28.50470924 -1.316200018 -5.471255779
28.51721001 -1.404466033 -5.474480152
28.51571083 -1.492102981 -5.475049019
28.53158951 -1.580721021 -5.479030132
28.54228973 -1.669163942 -5.48206377
28.55368996 -1.757748008 -5.485288143
28.56874084 -1.846670985 -5.48926878
28.57860947 -1.935371041 -5.492302895
28.58820915 -2.024148941 -5.495337009
28.59851074 -2.113076925 -5.498559952
28.60265923 -2.201634884 -5.500646114
28.60165024 -2.289845943 -5.501782894
28.60036087 -2.378072023 -5.502921104
28.59487915 -2.465974092 -5.50330019
28.57349014 -2.552468061 -5.500646114
28.55673027 -2.639305115 -5.498939991
28.56023026 -2.728023052 -5.501214981
28.50774956 -2.811295986 -5.49268198
28.37257004 -1.050523996 -5.623654842
28.41723061 -1.139487982 -5.633238792
28.39694977 -1.225947022 -5.629913807
28.41655922 -1.314147949 -5.634609222
28.41827965 -1.401612997 -5.635781765
28.41383934 -1.488791943 -5.635781765
28.47083092 -1.579377055 -5.648105145
28.45704079 -1.666200995 -5.646345139
28.46256065 -1.754161 -5.648497105
28.46879005 -1.842234969 -5.650844097
28.52561951 -1.933809996 -5.66336298
28.50683975 -2.020415068 -5.660820007
28.52300072 -2.109525919 -5.665318012
28.54376984 -2.199131966 -5.670794964
28.51049995 -2.284578085 -5.665513992
28.50766945 -2.460484028 -5.667860985
28.75094986 -0.7002421021 -5.879743099
28.12354088 -1.030388951 -5.752739906
28.15547943 -1.118067026 -5.759997845
28.16757011 -1.20511198 -5.763223171
28.1725502 -1.29192698 -5.765038013
28.24964905 -1.382329941 -5.781770229
28.24136925 -1.468788981 -5.780962944
28.21324921 -1.554131031 -5.776124954
28.26506996 -1.643982053 -5.787817001
28.25304985 -1.730270982 -5.78640604
28.26812935 -1.818263054 -5.790638924
29.00727081 -0.4414496124 -6.105706215
28.94219971 -0.5292770267 -6.092236996
28.89641953 -0.6171274185 -6.082911015
28.8122406 -0.7037696838 -6.065504074
28.95956993 -0.796277225 -6.09720993
28.94916916 -0.8848809004 -6.095551968
28.97956085 -0.974810183 -6.10259819
29.02433968 -1.06547296 -6.112751961
29.05122948 -1.155719042 -6.119175911
29.05438995 -1.24513495 -6.120626926
29.05825043 -1.334625959 -6.122283936
29.06867981 -1.424486995 -6.125392914
29.09445953 -1.515239954 -6.131816864
29.10627937 -1.60540998 -6.135340214
29.11391068 -1.695438027 -6.138033867
29.11149979 -1.784929991 -6.138656139
29.13126945 -1.875869989 -6.144042969
29.15076065 -1.966946959 -6.149432182
29.18264961 -2.059056997 -6.157514095
29.07081985 -2.140816927 -6.13513279
29.06118965 -2.229769945 -6.134510994
29.15270996 -2.326781034 -6.155440807
29.1434803 -2.41604805 -6.155026913
29.24119949 -2.514501095 -6.177406788
29.15148926 -2.5969069 -6.159999847
29.08396912 -2.680851936 -6.147358894
29.03226089 -0.2707704902 -6.280096054
29.00329971 -0.6265143752 -6.274991989
28.99147987 -0.7152515054 -6.272863865
28.98133087 -0.8039761186 -6.271162987
28.98068047 -0.8929458857 -6.271587849
28.98951912 -0.9822500944 -6.274140835
29.00102043 -1.071725011 -6.277330875
29.03384972 -1.340626001 -6.286901951
29.03351021 -1.429885983 -6.287753105
29.01726913 -1.518339992 -6.285201073
29.02614021 -1.608114004 -6.288177967
29.06690979 -1.699836969 -6.298173904
29.05961037 -1.788884997 -6.297749043
29.12322044 -1.882505059 -6.312849998
29.15337944 -1.974287033 -6.320720196
29.14426041 -2.063512087 -6.320082188
29.19041061 -2.156802893 -6.331566811
29.16806984 -2.245147943 -6.328164101
29.16835022 -2.425292015 -6.331354141
29.18997955 -2.517286062 -6.337735176
29.17822075 -2.606479883 -6.336884022
29.20512009 -2.699222088 -6.344541073
29.27499962 -0.2648685873 -6.525753021
28.97547913 -0.3510763049 -6.458793163
28.94305038 -0.4394974113 -6.451789856
28.94742012 -0.5283979177 -6.453103065
28.9349308 -0.6169764996 -6.450695992
28.94168091 -0.7059584856 -6.452664852
28.95108032 -0.7950680256 -6.455290794
28.95825958 -0.8841822743 -6.457479
28.9788208 -0.9738063812 -6.462730885
29.00982094 -1.063958049 -6.470389843
29.02998924 -1.332342029 -6.47739315
29.06085014 -1.423115969 -6.485270977
29.08558083 -1.513787031 -6.491835117
29.20940971 -1.610097051 -6.520720005
29.27312088 -1.97419405 -6.539977074
29.22896957 -2.061317921 -6.531442165
29.17288017 -2.147330999 -6.520281792
29.19338989 -2.23890996 -6.526410103
29.14702034 -2.415337086 -6.519187927
29.1297493 -2.503911972 -6.517000198
29.11997986 -2.593096018 -6.516561985
29.12161064 -2.6833179 -6.518751144
28.81967926 -0.5300315022 -6.604260921
28.81498909 -0.6183837056 -6.603587151
28.84316063 -0.7075259089 -6.610549927
28.87821007 -0.8857172728 -6.619759083
28.94721031 -1.06565702 -6.637053967
29.4303093 -1.716954947 -6.755424023
29.4114399 -1.897001982 -6.753626823
29.2758007 -2.068702936 -6.725100994
29.02971077 -2.409661055 -6.674563885
28.84189987 -2.129014969 -6.796572208
28.86628914 -2.219878912 -6.803934097
28.80307961 -2.303926945 -6.790590763
28.80265999 -2.392847061 -6.792201042
15.44993019 34.30189133 -7.70353508
40.68489075 -8.753371239 -3.63993907
40.63798904 -8.861609459 -3.901340008
40.68341064 -8.889038086 -4.148141861
40.75246048 -8.619673729 -4.421021938
40.72970963 -8.745495796 -4.421448231
35.97692108 -0.008242150769 -4.029285908
35.98070145 -0.118630901 -4.029735088
36.05701065 -0.5614144206 -4.038835049
36.07400131 -0.6723852158 -4.040968895
36.10057068 -0.7836812139 -4.044227123
36.13077927 -0.8952450752 -4.047934055
36.14871979 -1.006669998 -4.050292015
36.1663208 -1.118213058 -4.052651882
36.17861176 -1.229704022 -4.054449081
36.18162155 -1.340950966 -4.055234909
36.1803093 -1.452067971 -4.055572987
36.17668152 -1.563102961 -4.055685043
40.73455048 -8.764055252 -4.672523022
35.94347 -0.004306999967 -4.247934818
35.9552002 -0.1146178991 -4.249355793
35.96361923 -0.2249820977 -4.250422001
35.98559952 -0.3355286121 -4.253145218
40.75130081 -8.762875557 -4.932310104
39.89363098 -9.218251228 -5.599510193
39.8535881 -9.337887764 -5.597874165
39.80355072 -9.455076218 -5.594871998
39.77820969 -9.578074455 -5.595417976
39.88138962 -9.347034454 -5.856975079
39.75912094 -9.447151184 -5.843156815
39.99485016 -9.246908188 -6.125700951
39.94221878 -9.36392498 -6.121988773
39.91041946 -9.485735893 -6.121542931
39.97957993 -9.220787048 -6.386342049
39.92224884 -9.336648941 -6.381700993
39.89822006 -9.460224152 -6.382473946
