# .PCD v0.7 - Point Cloud Data file format
VERSION 0.7
FIELDS x y z
SIZE 4 4 4
TYPE F F F
COUNT 1 1 1
WIDTH 93
HEIGHT 1
VIEWPOINT 0 0 0 1 0 0 0
POINTS 93
DATA ascii
14.93422985 31.06608963 -6.835812092
14.98736954 30.4842701 -6.952003956
14.89962006 31.4928093 -7.543896198
14.83045959 31.09944916 -7.460095882
14.55669975 30.28585052 -7.274631023
14.56562996 30.06781006 -7.232730865
12.34759045 34.52711868 -8.183567047
14.70783997 30.38324928 -7.530375957
24.4611702 -36.61322021 -6.024692059
24.3064003 -36.86931992 -6.042287827
24.47026062 -37.61816025 -6.140911102
24.4864502 -37.89691925 -6.174330235
24.40377998 -38.02439117 -6.182923794
24.40255928 -38.28034973 -6.212523937
25.57888031 -35.39743042 -6.247019768
24.42388916 -36.08097839 -6.232347012
24.34197998 -36.68278885 -6.297733784
24.34699059 -36.93581009 -6.328505039
24.30513 -37.11962891 -6.347309113
24.33090973 -37.40893173 -6.384204865
24.39546013 -38.01651001 -6.462698936
24.39789009 -38.27814102 -6.494608879
25.16167068 -35.27857971 -6.468439102
25.01614952 -35.30316925 -6.458786011
24.89122009 -35.35630035 -6.454480171
24.74464989 -35.37820053 -6.44453001
24.65630913 -35.48318863 -6.449875832
24.41352081 -35.59791946 -6.443342209
24.39049911 -35.79933167 -6.466360092
24.32324028 -35.93704987 -6.47779417
24.28342056 -36.59941101 -6.557093143
24.30055046 -36.87025833 -6.592435837
24.32328033 -37.15230179 -6.629710197
24.27495956 -37.32788849 -6.647827148
24.92057037 -35.12850952 -6.705974102
24.69887924 -35.27267075 -6.704426765
24.59168053 -35.34989929 -6.704736233
24.48648071 -35.43006134 -6.705665112
24.37822914 -35.50582886 -6.70581913
24.28532982 -35.60411835 -6.710306168
30.99201012 -28.09269905 -5.72132206
31.97569084 -26.41272926 -5.930624962
30.95475006 -27.88987923 -5.958261013
27.18704987 -26.04993057 -6.309375763
23.98324013 -29.41433907 -6.359917164
23.95762062 -29.36582947 -6.595911026
24.85540962 -26.91509056 -6.817146778
24.06172943 -27.0376091 -6.734368801
29.28554916 5.736695766 -6.65267086
29.0360508 5.318678856 -6.580239773
29.11582947 5.513943195 -6.790688038
29.11844063 5.329575062 -6.783500195
28.97402954 5.119616985 -6.742171764
28.96175003 5.0258708 -6.735658169
29.12284088 5.791307926 -6.979230881
29.05843925 5.593375206 -6.955306053
29.04486084 5.498406887 -6.947945118
28.93045044 5.201406956 -6.908606052
29.01527023 5.124811172 -6.925168991
29.00497055 5.031279087 -6.918958187
40.83097076 -8.784800529 -3.653142929
40.50669861 8.188916206 -3.876072884
40.56092072 8.070432663 -3.878901005
40.49757004 7.928740025 -3.870415926
40.52531052 8.175330162 -4.117837906
40.52872849 8.046697617 -4.115636826
40.07667923 7.829211235 -4.066830158
40.17378998 7.720304966 -4.074330807
40.16698074 7.591289043 -4.071230888
40.66493988 -8.88500309 -4.146242142
40.56882095 8.206741333 -4.392816067
40.58699036 8.080880165 -4.39207077
40.71416092 -8.742155075 -4.419744968
40.5993309 8.195532799 -4.64443779
40.62427902 8.070937157 -4.64443779
40.75592041 -8.768652916 -4.674993992
40.60466003 8.201348305 -4.901525021
40.63451004 8.07770443 -4.902116776
40.79499054 -8.772268295 -4.937637806
40.63376999 8.211969376 -5.169457912
40.65584946 8.086688042 -5.169084072
39.83718872 -9.33404541 -5.595554829
39.80739975 -9.455991745 -5.595417976
39.88288116 -9.218395233 -5.852985859
39.85633087 -9.341162682 -5.853271008
39.79475021 -9.455616951 -5.848427773
39.77999115 -9.581136703 -5.850564003
39.9524498 -9.237107277 -6.119166851
39.91526031 -9.35760498 -6.11783123
39.8902092 -9.480934143 -6.118423939
40.00941849 -9.22767067 -6.391138077
39.98284912 -9.350824356 -6.391448021
39.94340134 -9.470938683 -6.389746189
