# .PCD v0.7 - Point Cloud Data file format
VERSION 0.7
FIELDS x y z
SIZE 4 4 4
TYPE F F F
COUNT 1 1 1
WIDTH 54
HEIGHT 1
VIEWPOINT 0 0 0 1 0 0 0
POINTS 54
DATA ascii
14.75086021 31.17835999 -7.468179226
14.50294018 30.17399979 -7.247620106
14.5630703 30.06253052 -7.231454849
14.59646034 30.15313911 -7.473043919
14.56427002 30.07525063 -7.662628174
34.46569824 -43.88536072 -6.971635818
31.15803909 -29.65424919 -5.632270813
30.93268013 -27.87000084 -5.953988075
40.67417908 -8.751066208 -3.63897109
40.6282692 -8.859487534 -3.900398016
40.60467911 -8.871836662 -4.140040874
40.82936859 -8.777004242 -5.712046146
39.87197876 -9.47133255 -5.604557991
40.00727844 -9.247149467 -5.871363163
40.20787048 -9.553774834 -5.90954113
39.99966812 -9.248021126 -6.126442909
39.9817009 -9.373177528 -6.12807703
39.96044922 -9.497625351 -6.129264832
40.04457092 -9.647504807 -6.14678812
40.07125854 -9.112548828 -6.39655304
40.00556946 -9.226782799 -6.390520096
39.97515106 -9.349024773 -6.390210152
39.94628143 -9.471622467 -6.390210152
37.96107864 9.630377769 -6.318405151
38.07215881 9.410298347 -6.327217102
38.1449585 9.304209709 -6.334587097
38.22803116 9.200303078 -6.343719959
37.65491104 9.91989994 -6.526336193
37.72079849 9.690139771 -6.527332783
37.78475952 9.583095551 -6.533318043
37.96250916 9.380641937 -6.554100037
38.06536865 9.158604622 -6.562079906
37.57714081 9.910880089 -6.76456213
37.61022949 9.796293259 -6.765079021
37.64773941 9.682823181 -6.766458988
37.68013 9.568003654 -6.76697588
37.60752869 9.789235115 -6.995133877
37.78234863 10.70353031 -6.335547924
37.74084854 10.06902981 -6.301741123
37.72779846 10.68548965 -6.572220802
37.66070175 10.54178047 -6.554765224
37.65198898 10.41489029 -6.547616005
37.6628418 10.29360008 -6.543958187
37.65901947 10.16849995 -6.537806988
37.63383102 10.03792 -6.527997971
37.63591003 10.79592991 -6.815606117
37.61577988 10.66536999 -6.805949211
37.58573151 10.53236961 -6.794568062
37.59128952 10.40964985 -6.789739132
37.58694077 10.16053963 -6.777494907
37.57035065 10.03246975 -6.768873215
37.62314987 10.28789043 -7.021139145
37.59278107 10.15573978 -7.009561062
37.56956863 10.02589989 -6.999409199
