# .PCD v0.7 - Point Cloud Data file format
VERSION 0.7
FIELDS x y z
SIZE 4 4 4
TYPE F F F
COUNT 1 1 1
WIDTH 932
HEIGHT 1
VIEWPOINT 0 0 0 1 0 0 0
POINTS 932
DATA ascii
12.23400974 -18.79586983 -5.956221104
12.16685009 -18.81871033 -5.951570988
12.11845016 -18.87058067 -5.956221104
12.26624966 -18.72274017 -6.0828228
12.19981003 -18.74654007 -6.078338146
12.14171982 -18.78306961 -6.078073978
12.08246994 -18.81780052 -6.077281952
12.02519989 -18.85559082 -6.07754612
11.96315956 -18.88587952 -6.075435162
11.91851997 -18.94371986 -6.082294941
12.10953999 -18.72364998 -6.197806835
12.05099964 -18.75909042 -6.197268009
11.98770046 -18.78705025 -6.194303989
11.93721962 -18.83511925 -6.198075771
11.87886047 -18.87084007 -6.197806835
11.86378956 -18.97579002 -6.220438004
12.06309986 -18.66930962 -6.316143036
12.00576019 -18.7062397 -6.316143036
11.95038033 -18.74621964 -6.317243099
11.89692974 -18.78930092 -6.319441795
11.83922958 -18.8257103 -6.319441795
11.77836037 -18.85704994 -6.317791939
11.72348976 -18.89800072 -6.319441795
11.66899014 -18.93960953 -6.321366787
11.64494991 -19.03108025 -6.340065002
12.10258007 -18.58687019 -6.445030212
12.04915047 -18.62955093 -6.446994781
12.05523014 -18.7649498 -6.481235981
11.9506197 -18.72821045 -6.455696106
11.88333988 -18.74938965 -6.450363159
11.83650017 -18.80281067 -6.456256866
11.76552963 -18.81788063 -6.448958874
11.71026993 -18.85795975 -6.450363159
11.65538979 -18.89870071 -6.452046871
11.60937977 -18.95401955 -6.45878315
12.29916954 -18.78012085 -6.655755997
12.03275013 -18.8746891 -6.636316776
11.89634991 -18.78764915 -6.592580795
11.82487965 -18.80216026 -6.584863186
11.76154995 -18.82941055 -6.581718922
11.68605042 -18.83691025 -6.571713924
11.63675022 -18.88653946 -6.576572895
11.60225964 -18.96056938 -6.590009212
12.4030304 -18.80294991 -6.81559515
12.34790993 -18.84490967 -6.817050934
12.26708031 -18.84742928 -6.804237843
12.19102001 -18.85684967 -6.794045925
12.11604977 -18.86759949 -6.784436226
12.04164982 -18.87887001 -6.775117874
11.93912983 -18.84542084 -6.749783039
11.87668037 -18.87467003 -6.747161865
11.79438019 -18.87207985 -6.733184814
11.74147034 -18.91629982 -6.736096859
11.67735958 -18.94245911 -6.732602119
12.36005974 -18.74097061 -6.938360214
12.23857975 -18.80685997 -6.934797764
12.17772007 -18.83950043 -6.933015823
12.10437965 -18.85267067 -6.924109936
12.03672981 -18.87442017 -6.918468952
11.98797035 -18.92577934 -6.923812866
11.92424965 -18.95358086 -6.920547009
11.84428978 -18.95524979 -6.907782078
12.16252041 -18.80483055 -7.058711052
12.10323048 -18.8396492 -7.057804108
12.03921986 -18.86705017 -7.054178238
11.92271996 -18.93976021 -7.053874969
11.86758995 -18.98110008 -7.055688858
11.79722977 -18.99798965 -7.048436165
11.71387005 -18.99352074 -7.033326149
11.48433971 -19.01078033 -7.00008297
12.3183403 -18.9286499 -7.253149033
12.1124897 -18.86454964 -7.199668884
12.05047035 -18.89521027 -7.197209835
11.81919003 -19.04409027 -7.198132992
11.72924995 -19.02923012 -7.178769112
11.66584969 -19.05699921 -7.175694942
11.35758972 -19.0752697 -7.129283905
12.12994003 -18.88199043 -7.35470295
12.07911015 -18.93032074 -7.359086037
11.99911022 -18.93280029 -7.345626831
11.94349957 -18.97353935 -7.347191811
11.88321972 -19.00687027 -7.345940113
11.68992996 -19.08628082 -7.334671974
11.63082027 -19.12124062 -7.334359169
14.95590019 31.11116982 -6.845788002
14.96319962 30.88332939 -6.805492878
14.5829401 30.34045029 -7.287817955
14.57925987 30.09594917 -7.239538193
14.66123962 30.03001022 -7.234433174
14.65596008 30.51442909 -7.551821232
14.63885021 30.00560951 -7.447442055
31.25036049 -30.10972023 -5.682590008
31.19201088 -30.2385807 -5.688864231
31.24958992 -29.55920029 -5.63240099
31.22874069 -29.90467072 -5.661808968
27.35495949 -25.09450912 -6.908019066
27.22927094 -25.28863907 -6.91537714
25.1335907 -4.203693867 -3.470467091
25.12252998 -4.281116009 -3.470738888
25.09659004 -4.355967999 -3.468966007
25.08505058 -4.433288097 -3.469238997
25.11326027 -4.51776886 -3.475105047
25.14702988 -4.603536129 -3.48178792
25.18440056 -4.690279007 -3.489017963
25.22051048 -4.777109146 -3.496110916
25.27091026 -4.867014885 -3.505249977
25.30447006 -4.954040051 -3.512070894
25.33288002 -5.040349007 -3.518208981
25.37264061 -5.129234791 -3.525984049
25.45575905 -5.227381229 -3.539897919
25.42020988 -5.301407814 -3.537169933
25.49976921 -5.399690151 -3.550673962
25.45887947 -5.472692013 -3.547264099
25.49036026 -5.561332226 -3.554084063
25.46544075 -5.637794971 -3.552993059
25.49258995 -6.055456161 -3.569498062
25.46040916 -6.130391121 -3.567589045
25.37603951 -6.192502022 -3.558312893
25.33864975 -6.265807152 -3.555721045
25.26803017 -4.148450851 -3.646909952
25.20734978 -4.217948914 -3.63993001
25.19038963 -4.294599056 -3.639359951
25.08550072 -4.514692783 -3.629956961
25.07250977 -4.59181118 -3.630100012
25.08651924 -4.673967838 -3.634231091
25.09638023 -4.755517006 -3.637793064
25.12928963 -4.841663837 -3.644773006
25.11042976 -4.917975903 -3.644202948
25.14764977 -5.005424023 -3.651896
25.17777061 -5.091773033 -3.658591032
25.17754936 -5.172180176 -3.660871029
25.18481064 -5.254251003 -3.664288998
25.20439911 -5.339079857 -3.669559956
25.22080994 -5.423456192 -3.674403906
25.21952057 -5.504182816 -3.676682949
25.22860909 -5.58730793 -3.680529118
25.27025986 -5.677917004 -3.689218998
25.22665977 -5.749479771 -3.685373068
25.24651909 -5.835539818 -3.690928936
25.25354958 -5.918839931 -3.694633007
25.25260925 -6.000408173 -3.69719696
25.32357025 -6.099407196 -3.710444927
25.34812927 -4.003950119 -3.815043926
25.25663948 -4.068961143 -3.803014994
24.9425106 -4.096913815 -3.757128954
24.94152069 -4.175374985 -3.758910894
24.9480896 -4.255199909 -3.761881113
24.95343018 -4.334935188 -3.764702082
24.97604942 -4.417841911 -3.770196915
24.99547005 -4.500402927 -3.775245905
25.00585938 -4.581521034 -3.778958082
25.03543091 -4.666368961 -3.785640955
25.0384903 -4.746469021 -3.788314104
25.05780029 -4.829813004 -3.793510914
25.07099915 -4.912178993 -3.797817945
25.08394051 -4.994671822 -3.802124023
25.09079933 -5.076114178 -3.805540085
25.11869049 -5.162024021 -3.812222004
25.1240406 -5.243505955 -3.815489054
25.14846039 -5.329170227 -3.821726084
25.15906906 -5.412120819 -3.825884104
25.17616081 -5.496664047 -3.831082106
25.18139076 -5.57879591 -3.834496975
25.19405937 -5.662745953 -3.839101076
25.19971085 -5.745288849 -3.842664003
25.20412064 -5.827695847 -3.846080065
25.20923042 -5.910410881 -3.849643946
25.20829964 -5.991838932 -3.852317095
25.18596077 -6.068223 -3.851722956
25.18840027 -3.963989019 -3.95429492
24.93029976 -4.001778126 -3.915307999
24.91205978 -4.077285767 -3.914380074
24.91015053 -4.155485153 -3.916080952
24.91968918 -4.235696793 -3.919640064
24.9231205 -4.314995766 -3.92227006
24.93895912 -4.396585941 -3.926911116
24.9340992 -4.474647999 -3.928303957
24.97274017 -4.560709953 -3.936657906
24.98777008 -4.642720222 -3.941298962
25.00835037 -4.725965023 -3.946868896
25.02186966 -4.808074951 -3.95135498
25.03803062 -4.890881062 -3.956305981
25.05682945 -4.974409103 -3.961720943
25.07147026 -5.057315826 -3.966516972
25.08971024 -5.141152859 -3.971931934
25.1096096 -5.225552082 -3.977655888
25.12825012 -5.309916973 -3.983226061
25.13986015 -5.392995834 -3.987711906
25.15505028 -5.477035999 -3.992818117
25.16320992 -5.559728146 -3.99684
25.17013931 -5.642304897 -4.000708103
25.17583084 -5.724758148 -4.004421234
25.16970062 -5.804634094 -4.006278038
25.17197037 -5.886550903 -4.009527206
25.17398071 -5.968536854 -4.012774944
25.16707993 -6.048512936 -4.014632225
25.20503998 -6.139492989 -4.023759842
25.55714989 -3.872533083 -4.157118797
25.31687927 -3.915615082 -4.119626999
25.14971924 -3.968801022 -4.09415102
24.89768982 -4.007350922 -4.054735184
24.89697075 -4.085635185 -4.056657791
24.90184021 -4.164929867 -4.059542179
24.89867973 -4.242967129 -4.061143875
24.91180038 -4.32389307 -4.065470219
24.93729973 -4.407173157 -4.07187891
24.95183945 -4.488727093 -4.076526165
24.97192955 -4.571478844 -4.08213377
24.98786926 -4.653673172 -4.087100983
24.99868965 -4.735088825 -4.091267109
25.01991081 -4.818668842 -4.097195148
25.03890991 -4.902044773 -4.10280323
25.05472946 -4.985003948 -4.107930183
25.0780201 -5.069672108 -4.114338875
25.08846092 -5.151947975 -4.118665218
25.10152054 -5.234940052 -4.123472214
25.1094799 -5.317038059 -4.127478123
25.12972069 -5.401930809 -4.133565903
25.13328934 -5.483421803 -4.136930943
25.14237022 -5.566265106 -4.141256809
25.14827919 -5.6485672 -4.145102978
25.15296936 -5.730737209 -4.148787022
25.15162086 -5.811655998 -4.151511192
25.14712906 -5.891945839 -4.153755188
25.14142036 -5.972033978 -4.155838013
25.14216995 -6.053761005 -4.159041882
25.1455307 -6.136250019 -4.162726879
25.11698914 -6.292822838 -4.164330006
25.6783905 -3.812283039 -4.337954998
25.56712914 -3.875971079 -4.320997238
25.43232918 -3.935394049 -4.300048828
25.13998032 -4.048262119 -4.254329205
24.89878082 -4.087832928 -4.215260029
24.89195061 -4.165177822 -4.216258049
24.89946938 -4.245006084 -4.219748974
24.9164505 -4.326605797 -4.224903107
24.93025017 -4.407835007 -4.229557991
24.94862938 -4.490062237 -4.235044003
24.96772003 -4.572621822 -4.240696907
24.99622917 -4.657145977 -4.248012066
25.01670074 -4.740419865 -4.253996849
25.02236938 -4.821065903 -4.257487774
25.04133034 -4.904444218 -4.263307095
25.05615044 -4.987213135 -4.268461227
25.07456017 -5.070900917 -4.274280071
25.08592987 -5.153360844 -4.278934956
25.10281944 -5.237145901 -4.284586906
25.10497093 -5.31801796 -4.287745953
25.12709045 -5.403306007 -4.294395924
25.12774086 -5.484152794 -4.29738903
25.13582993 -5.566761017 -4.301712036
25.13787079 -5.648173809 -4.305037022
25.13965034 -5.729651928 -4.308362007
25.1411705 -5.811192989 -4.311686993
25.13570976 -5.891222954 -4.313848019
25.14053917 -5.973781109 -4.317838192
25.12784958 -6.052268982 -4.318834782
25.17526054 -6.145464897 -4.330307007
24.90885925 -6.405320168 -4.29738903
25.22060013 -3.974792957 -4.430865765
24.88150978 -3.999638081 -4.372923851
24.87883949 -4.077547073 -4.374649048
24.87689972 -4.155640125 -4.376544952
24.89122963 -4.236567974 -4.381373882
24.90139961 -4.316949844 -4.385511875
24.91617012 -4.398291111 -4.390512943
24.92777061 -4.479239941 -4.39499712
24.94976044 -4.562250137 -4.401378155
24.9647007 -4.64417696 -4.406550884
24.99389076 -4.728983879 -4.414310932
25.0082798 -4.811223984 -4.419484138
25.0223999 -4.893596172 -4.424656868
25.03432083 -4.975716114 -4.429485798
25.04887009 -5.058538914 -4.434832096
25.06893921 -5.142686844 -4.441212177
25.07715034 -5.22459507 -4.445522785
25.09184074 -5.308028221 -4.451042175
25.09951973 -5.390152931 -4.455352783
25.11366081 -5.473843098 -4.46087122
25.11982918 -5.555969238 -4.465010166
25.12573051 -5.638185024 -4.469148159
25.13137054 -5.720489025 -4.473287106
25.1328907 -5.801993847 -4.476736069
25.1293602 -5.882441044 -4.479321957
25.13132095 -5.964283943 -4.482944012
25.12536049 -6.044353008 -4.4851861
25.1947403 -6.142869949 -4.501049995
25.0610199 -6.191791058 -4.48035717
25.19466019 -3.894800901 -4.575615883
25.20105934 -3.97499299 -4.578999996
24.89340973 -4.004763126 -4.52485323
24.86741066 -4.078886032 -4.522358894
24.88293076 -4.159864902 -4.527523994
24.87780952 -4.237506866 -4.528948784
24.8792305 -4.316335201 -4.531620979
24.89300919 -4.397438049 -4.536608219
24.90457916 -4.47831583 -4.541238785
24.91492081 -4.559131145 -4.545691967
24.93079948 -4.641130924 -4.551214218
24.96188927 -4.726202011 -4.559585094
24.97336006 -4.807785988 -4.564393997
24.97974014 -4.888538837 -4.568313122
25.00708961 -4.973599911 -4.57614994
25.01872063 -5.055756092 -4.58113718
25.03490067 -5.139019012 -4.587015152
25.04212952 -5.220622063 -4.591289997
25.06160927 -5.304966927 -4.597879887
25.07504082 -5.388239861 -4.603402138
25.09203911 -5.472484112 -4.60963583
25.10203934 -5.555395126 -4.61462307
25.1050396 -5.636908054 -4.618362904
25.11256981 -5.719584942 -4.622993946
25.11025047 -5.800147057 -4.625844002
25.11628914 -5.882768154 -4.630297184
25.10386086 -5.961160183 -4.631365776
25.11033058 -6.044137955 -4.635996819
25.13660049 -6.132110119 -4.644368172
25.16371918 -3.887428999 -4.725987911
25.15457916 -3.965070963 -4.726540089
24.86109924 -4.075294018 -4.675586224
24.8620491 -4.153816223 -4.678161144
24.85791016 -4.231556892 -4.679815769
24.8612709 -4.310655117 -4.682943821
24.87212944 -4.391180992 -4.687541962
24.88175964 -4.47164011 -4.691956997
24.88822937 -4.551669121 -4.695819855
24.90410042 -4.63357687 -4.701522827
24.93033981 -4.717637062 -4.70924902
24.95241928 -4.801156998 -4.716238976
24.97229958 -4.884480953 -4.722860813
24.98130035 -4.965864182 -4.727459908
24.99581909 -5.048514843 -4.733161926
25.01391029 -5.132091999 -4.739601135
25.03943062 -5.217432022 -4.747509956
25.04734039 -5.299314022 -4.752110004
25.06459999 -5.383358002 -4.758547783
25.07678032 -5.466510773 -4.764066219
25.08389091 -5.548727036 -4.768664837
25.08880043 -5.630609035 -4.772895813
25.09248924 -5.712354183 -4.776943207
25.09975052 -5.795059204 -4.78172493
25.1306591 -5.88346386 -4.791107178
25.10485077 -5.958721161 -4.789635181
25.10173988 -6.039391994 -4.792579174
25.10886955 -6.122663021 -4.797544956
25.19733047 -3.899032116 -4.884603977
25.17070007 -3.974021912 -4.88176012
24.88212013 -4.006742001 -4.827722073
24.88714981 -4.085924149 -4.831133842
24.86286926 -4.160313129 -4.828858852
24.84806061 -4.236240864 -4.828479767
24.85139084 -4.315310001 -4.831703186
24.86124039 -4.395635128 -4.83625412
24.87276077 -4.476408005 -4.841184139
24.88305092 -4.557116985 -4.845923901
24.90756989 -4.640628815 -4.853507996
24.92119026 -4.722322941 -4.859006882
24.96731949 -4.810461044 -4.870953083
24.95822906 -4.888168812 -4.872089863
24.97488976 -4.971041203 -4.87834692
24.99609947 -5.055035114 -4.885551929
25.00163078 -5.136044025 -4.889723778
25.02515984 -5.220944881 -4.897498131
25.04553032 -5.305428028 -4.90470314
25.06273079 -5.389465809 -4.911338806
25.07006073 -5.47156477 -4.916079998
25.07904053 -5.554184914 -4.921198845
25.09157944 -5.637773037 -4.927076817
25.09235001 -5.71887207 -4.930678844
25.10243034 -5.802238941 -4.936178207
25.10745049 -5.88460207 -4.940729141
25.10552025 -5.965460777 -4.943952084
25.10906029 -6.047742844 -4.948313236
25.10279083 -6.127775192 -4.950778008
25.96733093 -3.775728941 -5.194499969
25.78296089 -3.829737902 -5.159683228
25.43075943 -3.857217073 -5.091025829
25.29475021 -3.916019917 -5.065989017
25.13441086 -3.970201015 -5.03606081
24.83456039 -4.0009799 -4.977966785
24.83086967 -4.078582764 -4.979726791
24.8240509 -4.155714989 -4.980900764
24.82665062 -4.234491825 -4.98402977
24.82900047 -4.313323975 -4.987160206
24.83979034 -4.393746853 -4.992050171
24.85804939 -4.475667 -4.998505116
24.87023926 -4.556680202 -5.003786087
24.88989067 -4.639246941 -5.010632992
24.9083004 -4.721796036 -5.017282963
24.92740059 -4.804686069 -5.024128914
24.94045067 -4.886606216 -5.029801846
24.95323944 -4.968651772 -5.035473824
24.97536087 -5.052765846 -5.043103218
24.98567963 -5.134695053 -5.04838419
24.99477005 -5.216534138 -5.053470135
25.01413918 -5.300713062 -5.060707092
25.03803062 -5.386089802 -5.068922997
25.04438972 -5.467899799 -5.073616982
25.06388092 -5.55276823 -5.081049919
25.07064056 -5.63501215 -5.085939884
25.07619095 -5.717132092 -5.090633869
25.09005928 -5.801327229 -5.097088814
25.09123993 -5.882750988 -5.101000786
25.09214973 -5.964237213 -5.104914188
25.08993912 -6.045094967 -5.108239174
25.08271027 -6.124833107 -5.110586166
25.19732094 -6.399113178 -5.145989895
25.95318985 -3.7632339 -5.358026028
25.63923073 -3.798046112 -5.295128822
25.55481911 -3.865696907 -5.280010223
25.30858994 -3.907897949 -5.231225014
25.19585991 -3.969666958 -5.210258961
24.87120056 -3.996737957 -5.145145893
24.82113075 -4.06684494 -5.137283802
24.81723022 -4.144429207 -5.139098167
24.81598091 -4.222518921 -5.141517162
24.82414055 -4.302315235 -5.145952225
24.82239914 -4.380496979 -5.14837122
24.84547997 -4.463212967 -5.156032085
24.86153984 -4.544878006 -5.162281036
24.88599014 -4.628295898 -5.17034483
24.89188957 -4.70844698 -5.17457819
24.90810013 -4.790713787 -5.181028843
24.92308998 -4.872935772 -5.187277794
24.93395996 -4.954532146 -5.19272089
24.95033073 -5.037403107 -5.199374199
24.96162033 -5.119437218 -5.205018044
24.98126984 -5.203384876 -5.212477207
24.99394035 -5.286084175 -5.218524933
25.00633049 -5.368908882 -5.224573135
25.02706909 -5.453736782 -5.232435226
25.0341301 -5.535780907 -5.237473965
25.04855919 -5.619636059 -5.244126797
25.05986023 -5.702979088 -5.250174999
25.07086945 -5.786444187 -5.256221771
25.06826019 -5.866905212 -5.259448051
25.07682991 -5.950119019 -5.265091896
25.07274055 -6.030461788 -5.268115997
25.07315063 -6.111996174 -5.272148132
25.2064209 -6.226479053 -5.304401875
25.85980988 -3.751625061 -5.495625019
25.72624969 -3.812870026 -5.469513893
25.48711967 -3.857372999 -5.420814991
25.39685059 -3.923449039 -5.404029846
25.25521088 -3.980933905 -5.376261234
24.81228065 -4.067292213 -5.286530972
24.80837059 -4.144846916 -5.288395882
24.81193924 -4.223730087 -5.291919231
24.82198906 -4.303843021 -5.29689312
24.83082962 -4.383887768 -5.301659107
24.84807968 -4.465585232 -5.308290005
24.8660202 -4.547605991 -5.315128803
24.87791061 -4.628704071 -5.32072401
24.88954926 -4.709918022 -5.326319218
24.90283966 -4.791616917 -5.332328796
24.91778946 -4.873816967 -5.338753223
24.93437958 -4.956535816 -5.345591068
24.94016075 -5.037271023 -5.350150108
24.96771049 -5.122612 -5.359476089
24.97006989 -5.202979088 -5.363412857
24.99227905 -5.287662029 -5.371702194
25.00845909 -5.371297836 -5.37874794
25.01861954 -5.45383215 -5.384550095
25.03712082 -5.5383811 -5.392218113
25.0486393 -5.621594906 -5.398435116
25.05417061 -5.703629017 -5.403408051
25.06801033 -5.787730217 -5.410245895
25.07681084 -5.870854855 -5.416049004
25.08246994 -5.953410149 -5.421229839
25.07740974 -6.033537865 -5.424130917
25.07873917 -6.115314007 -5.428483009
25.18712044 -6.223672867 -5.456251144
26.0638504 -3.787813902 -5.693285942
25.70705032 -3.816536903 -5.617355824
25.55611038 -3.874300003 -5.58672905
25.46685028 -3.94073391 -5.569714069
25.33012962 -3.999191046 -5.542276859
24.8402195 -3.999995947 -5.436995983
24.82493973 -4.075710773 -5.436357021
24.82485008 -4.153950214 -5.4391222
24.82258034 -4.231897831 -5.44146204
24.83643913 -4.312713146 -5.447416782
24.8490696 -4.393483162 -5.453159809
24.86528015 -4.475062847 -5.45975399
24.87450027 -4.555552006 -5.464858055
24.88826942 -4.637033939 -5.471025944
24.89985085 -4.718279839 -5.476768017
24.91020012 -4.799455166 -5.482297897
24.92412949 -4.881490231 -5.488678932
24.93873978 -4.963846207 -5.495273113
24.95787048 -5.047306061 -5.502929211
24.97097969 -5.129749775 -5.509309769
24.98381996 -5.212322235 -5.515690804
25.00308037 -5.296438217 -5.523560047
25.0134697 -5.378872871 -5.52951479
25.01976013 -5.460587978 -5.534619808
25.03819084 -5.545138836 -5.542490005
25.05919075 -5.630496979 -5.55099678
25.0694294 -5.713646889 -5.557165146
25.09081078 -5.799552917 -5.565885067
25.07955933 -5.878064156 -5.567374229
25.08897972 -5.961530209 -5.573542118
25.08386993 -6.041676998 -5.576519966
25.11078072 -6.129725933 -5.58672905
25.21516037 -6.237236023 -5.614377975
26.57716942 -3.688545942 -5.97759819
26.50196075 -3.761020899 -5.963154793
26.10886002 -3.787000895 -5.876718998
25.89538956 -3.837199926 -5.830985069
25.60659981 -3.874742031 -5.768181801
25.2035408 -3.97210598 -5.682185173
24.82995987 -3.991353989 -5.600124836
24.82722092 -4.069088936 -5.602313995
24.8290596 -4.147649765 -5.605596066
24.82102966 -4.224624157 -5.60668993
24.82237053 -4.303253174 -5.609972
24.83019066 -4.383117199 -5.614787102
24.84448051 -4.464278221 -5.621131897
24.85658073 -4.545217037 -5.627040863
24.86841965 -4.626270771 -5.632948875
24.87808037 -4.70707798 -5.638420105
24.89706039 -4.789832115 -5.646079063
24.91671944 -4.872932911 -5.653955936
24.93610954 -4.956200123 -5.661833763
24.94948006 -5.038473129 -5.668397903
24.95875931 -5.120090008 -5.674088001
24.97159004 -5.202608109 -5.680653095
24.98797035 -5.286058903 -5.688093185
24.99644089 -5.368021965 -5.693781853
25.01226997 -5.451748848 -5.701221943
25.03354073 -5.536887169 -5.709974766
25.0468998 -5.62049818 -5.716978073
25.06664085 -5.705759048 -5.725512028
25.16596031 -5.809627056 -5.752427101
25.09671974 -5.874800205 -5.740611076
25.08522034 -5.953344822 -5.7421422
25.19491005 -6.061081886 -5.77168417
25.23118019 -6.151753902 -5.784376144
25.23118973 -6.39834404 -5.79772377
25.17741966 -6.466983795 -5.789845943
28.39847946 9.867794991 -6.889966011
26.00279045 -3.775058985 -6.01667881
25.79445076 -3.82564497 -5.970858097
25.58605003 -3.874986887 -5.925036907
25.25046921 -3.903430939 -5.84956789
25.17196083 -3.970401049 -5.834070206
24.95474052 -4.014632225 -5.78622818
24.86057091 -4.077763081 -5.767136097
24.8239193 -4.149997234 -5.761520863
24.8331604 -4.229899883 -5.766686916
24.79606056 -4.301901817 -5.761072159
24.85568047 -4.390841007 -5.778141975
24.86797905 -4.471735001 -5.784205914
24.88194084 -4.553094864 -5.790719986
24.90617943 -4.636546135 -5.799705029
24.88705063 -4.71202898 -5.798582077
24.95476913 -4.804204941 -5.817897797
25.21084023 -5.175144196 -5.892468929
25.19681931 -5.820147991 -5.920993805
25.20730972 -5.904091835 -5.927732944
25.2615509 -6.080545902 -5.949295998
25.37039948 -6.271687031 -5.984109879
25.37656021 -6.355885983 -5.99017477
25.31632042 -6.423402786 -5.980515957
25.37639999 -3.84514308 -6.027286053
25.17214012 -3.893225908 -5.981276035
24.99954033 -3.945099115 -5.942856789
24.81245041 -3.993628979 -5.900988102
24.80007935 -4.069734097 -5.900988102
24.93581963 -4.249296188 -5.939637184
24.93802071 -4.407299995 -5.946537971
24.95791054 -4.489820004 -5.954589844
24.93635941 -4.564966202 -5.952748775
24.97867966 -4.651961803 -5.966321945
24.94804001 -4.725493908 -5.962410927
25.0280304 -4.820232868 -5.985187054
25.07615089 -4.909337044 -6.000370026
25.08864975 -4.991754055 -6.007040977
25.15430069 -5.085093021 -6.026596069
25.16813087 -5.168311119 -6.033727169
25.0854702 -5.231593132 -6.017622948
25.20737076 -5.661838055 -6.067314148
25.20059967 -5.822974205 -6.074215889
26.63278008 -3.703766108 -6.485013008
25.17357063 -3.895356894 -6.141423225
25.03000069 -3.951808929 -6.109115124
24.97937965 -4.02240181 -6.099681854
25.04459 -4.111771107 -6.118783951
25.09951973 -4.358393192 -6.141893864
26.73477936 -3.469408035 -6.661536217
26.61424065 -3.703155041 -6.639583111
26.53838921 -3.775633097 -6.623419762
26.40086937 -3.838747025 -6.591815948
25.11231995 -3.966711998 -6.279888153
24.97834969 -4.024139881 -6.249248981
24.99556923 -4.105628014 -6.256728172
25.06039047 -4.195270061 -6.276268959
25.07323074 -4.276537895 -6.282783031
26.55945015 -3.684921026 -6.799550056
26.58255959 -3.771287918 -6.808447838
26.31481934 -3.815687895 -6.742454052
24.99012947 -3.937243938 -6.412979126
24.95879936 -4.010818005 -6.408036232
24.92798042 -4.162930012 -6.406551838
26.44161034 -3.757950068 -6.936341763
26.21165085 -3.807341099 -6.878715992
25.86009026 -3.837318897 -6.788991928
25.52677917 -3.867930889 -6.704070091
25.00177956 -3.945451021 -6.571630955
24.57378006 -4.187594891 -6.471543789
24.51124954 -4.254362106 -6.458402157
24.01597977 -4.24433279 -6.330513
24.02379036 -4.321762085 -6.336072922
23.92667007 -4.380112171 -6.313830853
23.89599991 -4.4503088 -6.309281826
23.86387062 -5.514081001 -6.357809067
23.87038994 -5.592786789 -6.364128113
23.87100029 -5.670242786 -6.368929863
23.81117058 -5.733259201 -6.357555866
23.94104004 -5.842298031 -6.397236824
23.9361496 -5.918972015 -6.400775909
24.94503975 -4.007946014 -6.715145111
24.56843948 -4.024803162 -6.616468906
24.34444046 -4.064840794 -6.559123993
24.13566017 -4.106135845 -6.505910873
23.89526939 -4.291897774 -6.451148987
23.88578987 -4.36588192 -6.452181816
23.83238983 -4.431725025 -6.441332817
24.89423943 -3.923373938 -6.853859901
24.00839043 -4.086348057 -6.621915817
23.96722984 -4.155044079 -6.613999844
23.8764801 -4.214808941 -6.592361927
23.82834053 -4.357244015 -6.586293221
23.79495049 -4.426623821 -6.580751896
23.44911003 -4.735548973 -6.503964901
23.30785942 -4.781498909 -6.468605995
23.34690094 -4.864195824 -6.483645916
23.31741905 -4.184443951 -6.587124825
23.26753044 -4.249213219 -6.576616764
23.84897995 -4.431079865 -6.745816231
22.96032906 -4.484930038 -6.504412174
22.8990593 -4.264626026 -6.620804787
22.79328918 -4.317321777 -6.593857765
22.67892075 -4.36777401 -6.564436913
22.49892998 -4.476449966 -6.519893169
22.42100906 -4.532498837 -6.501194954
22.21264076 -4.846168041 -6.461325169
22.16950989 -4.908057213 -6.453075886
22.14590073 -4.974153042 -6.450601101
22.92308998 -4.331309795 -6.780988216
22.30167007 -4.355797768 -6.603888035
22.25431061 -4.417470932 -6.593782902
22.14468956 -4.466371059 -6.565155983
22.13275909 -4.534674168 -6.56571722
21.87162971 -4.621191025 -6.496110916
21.8169899 -4.679615021 -6.484043121
21.76596069 -4.738564014 -6.473096848
21.75131989 -4.805318832 -6.473096848
21.72241974 -4.868879795 -6.468886852
21.63157082 -4.91826582 -6.446153164
22.41049004 -4.458402157 -6.775242805
22.08674049 -4.464497089 -6.680911064
21.84671974 -4.485797882 -6.612020016
21.71089935 -4.527378082 -6.574858189
21.59472084 -4.572332859 -6.543700218
21.60681915 -4.644200802 -6.55170393
21.51054955 -4.761781216 -6.531123161
22.10082054 -4.391435146 -6.817924976
21.88322067 -4.487934113 -6.758810997
21.60243034 -4.499441147 -6.675817013
21.54828072 -4.557180882 -6.663296223
21.23015022 -4.626155853 -6.573022842
20.69732094 -4.77680397 -6.424799919
21.72540092 -4.52684021 -6.858203888
20.51502991 -4.736461163 -6.504625797
20.38975906 -4.773472786 -6.469297886
20.37315941 -4.83556509 -6.468704224
20.36473083 -4.899610043 -6.470781803
20.35424042 -4.963195801 -6.472267151
21.46945 -4.536223888 -6.915465832
21.2139492 -4.618399143 -6.841729164
20.27940941 -4.873332024 -6.570953846
19.37204933 -6.589482784 -6.445841789
19.34634018 -6.647027016 -6.444028854
19.33666039 -6.71009922 -6.447655201
19.32947922 -6.774119854 -6.452188015
19.33555984 -6.842930794 -6.461255074
19.34320068 -6.912484169 -6.470924854
19.3449707 -7.114568233 -6.49328804
19.33288002 -7.177534103 -6.496612072
19.32950974 -7.243835926 -6.502957821
21.49712944 -4.478900909 -7.051216125
21.71603966 -4.594058037 -7.128055096
21.15839958 -4.611931801 -6.953168869
21.12371063 -4.6723032 -6.946406841
21.0656395 -4.727296829 -6.931962013
19.48026085 -5.003902912 -6.454944134
19.34020996 -5.221747875 -6.429125786
19.30414009 -5.33930397 -6.427896023
19.32523918 -5.40901804 -6.440497875
19.38730049 -5.49057579 -6.466930866
19.34036064 -5.734566212 -6.474308014
19.49130058 -5.844427109 -6.531167984
19.30039978 -5.916509151 -6.478918076
19.20490074 -5.951755047 -6.452793121
19.17929077 -6.008370876 -6.450334072
19.20430946 -6.08096981 -6.465086937
19.16381073 -6.132900238 -6.457709789
19.16934967 -6.199570179 -6.46600914
19.20807076 -6.407954216 -6.498896122
19.20364952 -6.472019196 -6.504120827
19.14406967 -6.517413139 -6.490596771
19.21756935 -6.608292103 -6.522562981
19.27452087 -6.69406414 -6.548995018
19.27703094 -6.827768803 -6.564054966
19.27121925 -6.892324924 -6.569281101
19.31263924 -6.97403717 -6.590795994
19.25946045 -7.223204136 -6.602475166
18.27568054 -7.175949097 -6.30034399
18.2473793 -7.229530811 -6.298192024
18.24986076 -7.295368195 -6.306797981
21.14922905 -4.604654789 -7.091784954
21.03112984 -4.646564007 -7.05672884
21.03717041 -4.715637207 -7.063614845
19.14900017 -4.976429939 -6.478934765
19.0736599 -5.207540035 -6.474553108
19.05942917 -5.266539097 -6.475179195
19.09712029 -5.403299809 -6.499279976
19.02475929 -5.44591713 -6.480186939
19.02985954 -5.51060009 -6.487699032
19.04475975 -5.57830286 -6.498653889
19.01472092 -5.696416855 -6.500218868
19.02532959 -5.763264179 -6.509922028
19.07204056 -5.841357231 -6.532145023
19.08577919 -5.909676075 -6.54309988
19.05306053 -5.963663101 -6.538092136
19.02651978 -6.019509792 -6.535274982
19.02153015 -6.082192898 -6.539969921
18.87896919 -6.100505829 -6.497088909
18.97122002 -6.194664955 -6.535587788
18.90703011 -6.237957001 -6.519937992
18.95266914 -6.317562103 -6.542473793
18.8488102 -6.476296902 -6.526823997
18.17869949 -6.433677197 -6.313672066
18.10968971 -6.47183609 -6.296456814
18.12150002 -6.727966785 -6.329009056
18.13635063 -6.796864986 -6.341528893
18.17848015 -6.876337051 -6.363751888
18.17061043 -6.937157154 -6.368446827
18.19798088 -7.0116539 -6.385662079
18.18346024 -7.070206165 -6.388164997
18.17583084 -7.131509781 -6.393174171
18.17065048 -7.193882942 -6.399120808
19.06772995 -4.898132801 -6.568555832
18.90896988 -4.981225967 -6.523993969
18.87344933 -5.033840179 -6.516992092
18.87603951 -5.158798218 -6.528769016
18.78795052 -5.196718216 -6.503623009
18.71623039 -5.238746166 -6.484207153
18.80130959 -5.324818134 -6.519537926
18.65538025 -5.407352924 -6.480070114
18.65690041 -5.46989584 -6.486434937
18.63639069 -5.526031017 -6.485161781
18.65204048 -5.592982769 -6.496621132
18.6030407 -5.640552998 -6.485480785
18.71434975 -5.737057209 -6.530679226
18.75551987 -5.81268692 -6.551368237
18.59647942 -5.825985909 -6.50171423
18.28952026 -5.853291035 -6.406223774
18.25163078 -5.902956009 -6.399221897
18.20190048 -5.948616028 -6.388082027
18.15026093 -5.993432045 -6.376305103
18.11650085 -6.043986797 -6.370893002
18.15535927 -6.118917942 -6.391263962
18.10957909 -6.165421963 -6.381715775
18.10633087 -6.288556099 -6.394128799
18.08963966 -6.345016956 -6.395083904
18.08349037 -6.405232906 -6.399857998
18.10482025 -6.475368977 -6.414500237
18.10091019 -6.536678791 -6.420228958
18.08700943 -6.594453812 -6.422458172
18.09605026 -6.660719872 -6.432960987
18.10485077 -6.727103233 -6.443465233
18.13739014 -6.802591801 -6.462563038
18.12441063 -6.861226082 -6.465427876
18.12973022 -6.990724087 -6.482615948
18.14353943 -7.060063839 -6.495347977
18.13680077 -7.121584892 -6.500759125
18.11661911 -7.177893162 -6.501395226
18.11300087 -7.240829945 -6.508080006
18.08893967 -7.295657158 -6.507442951
18.0778904 -7.355762959 -6.511580944
18.05698967 -7.411911011 -6.512217999
19.14043045 -4.855949879 -6.70002079
18.7959404 -5.014844894 -6.599863052
18.64249039 -5.096641064 -6.556569099
18.62129021 -5.15229702 -6.554629803
18.19644928 -5.215520859 -6.420869827
18.13673019 -5.258674145 -6.405362129
18.08237076 -5.303105831 -6.391791821
18.04969025 -5.353713989 -6.385975838
18.04405975 -5.412326813 -6.389853001
18.05905914 -5.477272987 -6.401161194
18.08469963 -5.545691013 -6.416347027
18.07291031 -5.663626194 -6.424424171
18.05724907 -5.719617844 -6.425069809
18.02519989 -5.770373821 -6.41989994
18.04253006 -5.837007046 -6.432500839
18.03982925 -5.897332191 -6.437994003
18.00906944 -5.948493958 -6.433469772
17.98714066 -6.002519131 -6.43217802
17.97402 -6.059488773 -6.43411684
17.99744987 -6.128942013 -6.449302197
18.00452042 -6.193054199 -6.458672047
18.04118919 -6.329728127 -6.485811234
18.08056068 -6.40590477 -6.507134914
18.08754921 -6.470909119 -6.51682806
18.10232925 -6.538908005 -6.529428005
18.0965004 -6.662610054 -6.542028904
18.11145973 -6.731285095 -6.554953098
18.13503075 -6.803438187 -6.571106911
18.1097393 -6.921002865 -6.577246189
18.10078049 -6.98129797 -6.58176899
18.11985016 -7.052587032 -6.596632004
18.09383011 -7.170608044 -6.603094101
18.0427494 -7.214490891 -6.592432022
18.09775925 -7.300967216 -6.620862961
18.08316994 -7.359665871 -6.623772144
18.06925964 -7.418704987 -6.627001762
18.9395504 -4.923505783 -6.761515141
18.88781929 -4.971972942 -6.748380184
18.68915939 -5.042510033 -6.687960148
18.62438965 -5.086389065 -6.670228004
18.49489975 -5.112055779 -6.629180908
17.92844009 -5.252831936 -6.453174114
17.90136909 -5.304591179 -6.449233055
17.90764046 -5.366263866 -6.457443237
17.89650917 -5.422821999 -6.459413052
17.88636017 -5.539794922 -6.467949867
17.95852089 -5.62257719 -6.500459194
17.95199966 -5.681066036 -6.504399776
17.92038918 -5.792272091 -6.505712986
17.9339695 -5.857485771 -6.517206192
17.91591072 -5.912478924 -6.517206192
17.96702003 -6.051839828 -6.549386978
17.95284081 -6.108455181 -6.551029205
17.99921989 -6.185911179 -6.574999809
17.94934082 -6.292173862 -6.570731163
17.98871994 -6.368011951 -6.592402935
18.13232994 -6.544313908 -6.660048008
18.1325798 -6.607348919 -6.667601109
18.1308403 -6.669795036 -6.674497128
18.12535095 -6.730977058 -6.680078983
18.10372925 -6.786221981 -6.679749966
18.10226059 -6.8490839 -6.686975002
18.0802803 -6.904252052 -6.686645985
18.08105087 -6.968179226 -6.694856167
18.0771904 -7.030464172 -6.701423168
18.08455086 -7.097277164 -6.712258816
18.12009048 -7.30437994 -6.750349998
17.86256981 -7.328320026 -6.670556068
17.8068409 -7.369363785 -6.658078194
17.80245018 -7.431600094 -6.664974213
17.77783012 -7.485448837 -6.664317131
18.83152008 -4.897409916 -6.848650932
18.76992035 -4.942915916 -6.831626892
18.61724091 -5.086388111 -6.792572021
18.57611084 -5.136445045 -6.78322506
18.44226074 -5.160384178 -6.739830017
18.40456963 -5.210774899 -6.731819153
17.91519928 -6.282129765 -6.681079865
17.95326042 -6.481647015 -6.717464924
18.05285072 -6.580285072 -6.762528896
18.08566093 -6.655173779 -6.782557011
18.06868935 -6.711942196 -6.783893108
18.06213951 -6.772641182 -6.789234161
18.04392052 -6.829023838 -6.790235043
17.99118042 -6.872239113 -6.778217793
17.70175934 -6.823970795 -6.67640686
17.69831085 -6.885084152 -6.683083057
17.67972946 -6.940382004 -6.684083939
17.71093941 -7.015421867 -6.704113007
17.78385925 -7.107512951 -6.740163803
17.76634979 -7.163803101 -6.74183321
17.69800949 -7.199448109 -6.724141121
17.79618073 -7.303103924 -6.770205975
17.76411057 -7.353701115 -6.766534805
17.75363922 -7.413251877 -6.771207809
17.74385071 -7.473173141 -6.776215076
17.66877937 -7.505458832 -6.756186962
18.71696091 -4.930641174 -6.930357933
18.6500206 -5.035583019 -6.916801929
18.5918293 -5.081118107 -6.900874138
18.55620956 -5.132615089 -6.893416882
17.69133949 -6.144413948 -6.70430994
17.60938072 -6.176550865 -6.680247784
17.6240406 -6.242485046 -6.693126202
17.61544037 -6.300326824 -6.697193146
17.6278801 -6.365846157 -6.709393978
17.67456055 -6.444067955 -6.734810829
17.66264915 -6.501187801 -6.73786211
17.65761948 -6.560915947 -6.74362278
17.63299942 -6.613407135 -6.741929054
17.65485954 -6.683462143 -6.758195877
17.69491959 -6.760766029 -6.781579971
17.77153015 -6.852593899 -6.819198132
18.7983799 -4.888640881 -7.073763847
18.73698044 -4.934096813 -7.056221008
18.70269966 -4.986477852 -7.048996925
18.61469078 -5.085553169 -7.027326107
17.55069923 -6.03354311 -6.756950855
17.58798981 -6.106760979 -6.778623104
17.57360077 -6.162244797 -6.780343056
17.55018997 -6.214563847 -6.778623104
18.78440094 -5.130078793 -7.207384109
17.47751999 -5.530945778 -6.782773018
17.48694992 -5.652203083 -6.799870014
17.74846077 -7.216365814 -7.212884903
17.5752697 -6.339917183 -7.152235031
27.8300209 12.64447975 -7.006090164
28.13496971 12.16333008 -7.025405884
27.71606064 13.00302982 -7.197087765
27.73994064 12.91055012 -7.192946911
27.74761009 12.81070042 -7.184666157
27.76199913 12.71415997 -7.17822504
27.80442047 12.63053989 -7.179143906
27.78981018 12.52118969 -7.1653409
27.98526955 12.91808033 -7.439614773
27.99118996 12.81678963 -7.430654049
40.69462967 -8.755466461 -3.640820026
40.64868927 -8.8639431 -3.902378082
40.65716934 -8.883303642 -4.145442009
