# .PCD v0.7 - Point Cloud Data file format
VERSION 0.7
FIELDS x y z
SIZE 4 4 4
TYPE F F F
COUNT 1 1 1
WIDTH 725
HEIGHT 1
VIEWPOINT 0 0 0 1 0 0 0
POINTS 725
DATA ascii
-14.81264019 -12.39412975 -7.148419857
-15.44610023 -11.98589039 -7.236690998
-15.54588032 -11.98709011 -7.266347885
-15.65622997 -11.99577045 -7.300889015
-16.02374077 -11.96819019 -7.403813839
-15.24652958 -11.98349953 -7.301063061
-15.32450008 -11.96889973 -7.320893764
-15.42469025 -11.97113991 -7.351348877
-15.51762962 -11.96716022 -7.378262997
-15.59360981 -11.94964027 -7.397031784
-15.73139954 -11.97879028 -7.445192814
-15.78001022 -11.93949986 -7.45085907
-16.17522049 -11.92922974 -7.568428993
-15.02984047 -11.96533012 -7.355265141
-15.11550999 -11.95796013 -7.379341125
-15.20934963 -11.95650959 -7.40737009
-15.53230953 -11.98073959 -7.511220932
-15.60676003 -11.96197987 -7.529548168
-15.72282982 -11.97453976 -7.567996979
10.72029018 28.04285049 -7.802246094
14.98952961 30.48866081 -6.95301199
14.58547974 30.34573936 -7.289093971
14.59247017 30.12321091 -7.246130943
14.6573801 30.02210045 -7.23251915
14.62553978 30.4510994 -7.536066055
14.62580013 30.2137394 -7.488142967
30.96871948 -27.90246964 -5.960968018
24.31843948 -29.26737976 -6.137989998
24.75271034 -26.80388069 -6.788818836
24.20152092 -26.86097908 -6.727194786
24.11833954 -26.93437004 -6.727011204
24.04081917 -27.01411057 -6.7284832
24.47373009 -26.84313011 -6.975618839
24.34379005 -26.86569977 -6.961966991
32.85271835 -0.2055543065 -3.879462004
32.83604813 -0.3061960936 -3.877568007
32.83694077 -0.4069587886 -3.877804995
32.82064056 -0.5074691176 -3.876029015
32.79212952 -0.6076626182 -3.87283206
32.78414917 -0.7081360221 -3.872121096
32.81259918 -0.809471786 -3.875792027
32.81195068 -0.9101907015 -3.876029015
32.81991959 -1.01118803 -3.877331018
32.8444519 -1.112815022 -3.88064599
32.85874176 -1.214234948 -3.882776976
32.86180115 -1.315315962 -3.883605957
32.8744812 -1.416854978 -3.885618925
32.89179993 -1.518712997 -3.888223886
32.89690018 -1.620105028 -3.889408112
32.91756058 -1.722372055 -3.892487049
32.90914917 -1.82318902 -3.89213109
32.9549408 -1.927157998 -3.898288012
32.63658142 -0.0004510857107 -4.061652184
32.58781052 -0.1004306003 -4.055544853
32.63695908 -0.2007113993 -4.061777115
32.64213943 -0.3008939028 -4.062524796
32.63610077 -0.4009763896 -4.061902046
32.55033112 -0.09373210371 -4.25287199
32.55484009 -0.1936243027 -4.25352478
32.56996155 -0.2936438024 -4.255616188
32.5847702 -0.3937579095 -4.257707119
32.59926987 -0.493965596 -4.259799004
32.59262085 -0.001744249021 -4.449460983
30.64440918 -0.1896508932 -4.181283951
30.63972092 -0.2836290002 -4.180738926
30.65653992 -0.3778490126 -4.18319416
30.65821075 -0.4719460011 -4.183603764
30.66750908 -0.5662031174 -4.185103893
30.68147087 -0.6606283784 -4.1872859
30.69614029 -0.7551692128 -4.18960619
30.71249008 -0.8498609066 -4.192196846
30.72459984 -0.9445384145 -4.194242954
30.73937035 -1.039397955 -4.196699142
30.75485039 -1.134395003 -4.199289799
30.77002907 -1.229496002 -4.201881886
30.78788948 -1.324828029 -4.204883099
30.80446053 -1.420235991 -4.207746983
30.81875992 -1.515661001 -4.210340023
30.83374977 -1.611238956 -4.213068008
30.84943008 -1.70697701 -4.215931892
30.87273026 -1.803290009 -4.21988821
30.88781929 -1.899273992 -4.222753048
30.90063095 -1.995241046 -4.225344181
30.91313934 -2.091304064 -4.227935791
30.90657997 -2.186135054 -4.227935791
30.88491058 -2.279850006 -4.22589016
30.90641022 -2.376796007 -4.229846001
30.88614082 -2.470577002 -4.228072166
30.63413048 -0.3796845973 -4.370872021
30.64569092 -0.4738656878 -4.372724056
30.64211082 -0.567846477 -4.372438908
30.65901947 -0.6622583866 -4.375145912
30.6657505 -0.7565354109 -4.376428127
30.67911911 -0.8510519862 -4.378706932
30.69021034 -0.9455968142 -4.380702019
30.70496941 -1.040351987 -4.383265972
30.72142029 -1.135279059 -4.386115074
30.73855972 -1.230357051 -4.389105797
30.75342941 -1.325464964 -4.391812801
30.77691078 -1.421087027 -4.395802021
30.87261009 -2.090692043 -4.415032864
30.86013031 -2.184978008 -4.414178848
30.86116982 -2.280229092 -4.415318012
30.8431797 -2.374063015 -4.413752079
30.82489967 -2.467808962 -4.412183762
30.66526985 -2.54973793 -4.390245914
30.6293602 -0.5697216988 -4.561700821
30.62055016 -0.6635388732 -4.560660839
30.63121986 -0.7577958107 -4.56259203
30.63468933 -0.8519322276 -4.563483238
30.61907959 -0.9455177188 -4.561553001
30.65160942 -1.040657997 -4.566897869
30.66309929 -1.135239005 -4.569126129
30.67725945 -1.230018973 -4.571798801
30.70396996 -1.325451016 -4.576402187
30.73730087 -1.421378016 -4.582045078
30.57844925 -0.7394880056 -4.751207829
30.5859108 -0.8335673809 -4.752755165
30.59111023 -0.9276396036 -4.753993034
28.1577301 -1.459511042 -4.376654148
30.54676056 -0.9390692115 -4.922037125
28.1460495 -1.124614954 -4.533649921
28.15924072 -1.211681962 -4.536374092
26.69643021 -3.044895887 -4.322793007
27.5562706 -0.933706522 -4.609776974
25.40976906 -2.027319908 -4.423623085
25.29840088 -2.096565962 -4.405170918
25.24081039 -2.169785976 -4.396203995
25.20656013 -2.244769096 -4.391376019
25.23584938 -2.325433016 -4.3977561
25.24821091 -2.404711962 -4.401205063
25.3181591 -2.489773035 -4.414827824
25.42114067 -2.578664064 -4.434315205
25.01413918 -3.393501997 -4.380339146
25.71467972 -1.183609009 -4.620501041
25.74040985 -1.26394403 -4.625844002
25.68629074 -1.340291023 -4.616759777
25.5710392 -1.412948966 -4.596632957
25.4850502 -1.486634016 -4.581850052
25.07156944 -2.003520012 -4.513630867
25.07518005 -2.702320099 -4.526100159
25.16066933 -2.789650917 -4.543199062
25.26539993 -2.879760981 -4.56385994
25.35906029 -2.969280958 -4.58256197
23.71315956 -1.089058042 -4.403337002
25.26383972 -1.315690041 -4.695268154
25.22434998 -1.391242981 -4.68864584
25.18364906 -1.466508985 -4.681839943
23.63460922 -3.206948996 -4.424491882
23.6324501 -3.280525923 -4.425962925
23.57555962 -3.346381903 -4.417133808
23.57588005 -3.420248032 -4.419157982
23.59445 -3.496885061 -4.424675941
23.65261078 -3.579699993 -4.437736988
23.90992928 -1.030598044 -4.58236599
23.25983047 -1.145612001 -4.457983017
23.25522995 -1.216915965 -4.457793236
23.30824089 -1.291406035 -4.468791008
23.22637939 -1.429873943 -4.454569817
23.23364067 -1.501885056 -4.456844807
23.2485199 -1.574483991 -4.460638046
23.24749947 -1.646080017 -4.461396217
23.25996017 -1.718695998 -4.464808941
23.26926041 -1.791178942 -4.467652798
23.28519058 -1.864282966 -4.471824169
23.2930603 -1.936851025 -4.474479198
23.30853081 -2.010159969 -4.478650093
23.31986046 -2.083231926 -4.482062817
23.34659958 -2.15783906 -4.488510132
23.34572983 -2.230015039 -4.489646912
23.36125946 -2.303843975 -4.494009018
23.37653923 -2.377789021 -4.498370171
23.38574028 -2.45123601 -4.501593113
23.40929031 -2.599014997 -4.509177208
23.42461967 -2.673494101 -4.513728142
23.43483925 -2.747519016 -4.517331123
23.45457077 -2.822804928 -4.522829056
23.47406006 -2.89823699 -4.528327942
23.49135971 -2.973570108 -4.533446789
23.50744057 -3.048909903 -4.538376808
23.52327919 -3.124376059 -4.543306828
23.53499031 -3.199439049 -4.547479153
23.5406208 -3.273792028 -4.550511837
23.53144073 -3.346136093 -4.550702095
23.52786064 -3.419301987 -4.552029133
23.52211952 -3.492189884 -4.552977085
23.51712036 -3.565221071 -4.554114819
23.5089798 -3.637804031 -4.554684162
23.2201004 -1.145447016 -4.597712994
23.17534065 -1.214526057 -4.589498043
23.20186043 -1.287304044 -4.595561028
23.18862915 -1.429342031 -4.594583035
23.19882011 -1.501427054 -4.597517014
23.2146492 -1.573984981 -4.601624966
23.22633934 -1.646376967 -4.604949951
23.23291969 -1.718494058 -4.607296944
23.24806976 -1.791345 -4.611404896
23.26787949 -1.864696026 -4.616490841
23.28256989 -1.93777895 -4.620597839
23.29997063 -2.011223078 -4.625292778
23.31419945 -2.084528923 -4.629401207
23.32625008 -2.157762051 -4.633117199
23.34295082 -2.231554985 -4.637812138
23.35161018 -2.304698944 -4.640941143
23.36491966 -2.378415108 -4.645049095
23.37603951 -2.45202899 -4.648766041
23.39180946 -2.526259899 -4.653460026
23.40148926 -2.599961996 -4.656980991
23.41873932 -2.674637079 -4.662065983
23.42016029 -2.747613907 -4.664021969
23.43498993 -2.822266102 -4.668716908
23.48461914 -2.901361942 -4.680452824
23.5135498 -2.978202105 -4.688082218
23.48387909 -3.04767704 -4.683973789
23.4928894 -3.122164011 -4.687691212
23.50749969 -3.197527885 -4.692581177
23.5102005 -3.271389008 -4.695124149
23.50490952 -3.344192982 -4.696102142
23.50036049 -3.417135 -4.697275162
23.49365044 -3.489794016 -4.698058128
23.49155998 -3.563178062 -4.699818134
23.48439026 -3.635832071 -4.700600147
23.58268929 -1.081258059 -4.819375038
23.19087982 -1.134582996 -4.73934412
23.16185951 -1.20440197 -4.734101772
23.14533997 -1.274755001 -4.731482029
23.15793991 -1.346725941 -4.734909058
23.15468025 -1.41782701 -4.735109806
23.20984077 -1.492694974 -4.74740696
23.25498962 -1.567257047 -4.757688999
23.29697037 -1.64190197 -4.767364979
23.27717018 -1.712290049 -4.764340878
23.3069706 -1.786391973 -4.771597862
23.31114006 -1.858667016 -4.77361393
23.30631065 -1.930256963 -4.773816109
23.29149055 -2.000994921 -4.77200079
23.33597946 -2.07696104 -4.782484055
23.34314919 -2.149802923 -4.785305977
23.35399055 -2.223081112 -4.788935184
23.3597393 -2.295964956 -4.791554928
23.36720085 -2.369103909 -4.794579983
23.37833023 -2.442717075 -4.798408985
23.39506912 -2.517050028 -4.803450108
23.3998909 -2.590214968 -4.806069851
23.41713905 -2.664872885 -4.811310768
23.42539024 -2.738637924 -4.814737797
23.4509201 -2.887589931 -4.823607922
23.47110939 -2.963205099 -4.829656124
23.47938919 -3.037461996 -4.833284855
23.47578049 -3.110254049 -4.834495068
23.49234009 -3.185817003 -4.83993721
23.49408913 -3.259490967 -4.842356205
23.48689079 -3.331968069 -4.842960835
23.47364998 -3.403587103 -4.842356205
23.47472954 -3.477309942 -4.844776154
23.46685028 -3.549752951 -4.845379829
23.46166039 -3.622627974 -4.846590042
23.62174988 -1.084859014 -4.969470978
23.09749985 -1.131795049 -4.859017849
23.10466957 -1.203212023 -4.861298084
23.14872932 -1.276731014 -4.871451855
23.15251923 -1.34819901 -4.873109818
23.16292 -1.420122027 -4.876217842
23.18189049 -1.492687941 -4.881192207
23.23674011 -1.567819953 -4.89383316
23.31521988 -1.860792994 -4.914969921
23.32987022 -1.934012055 -4.919322014
23.32578087 -2.005744934 -4.919735909
23.34583092 -2.079642057 -4.925331116
23.35687065 -2.152873039 -4.929060936
23.35795021 -2.225263119 -4.930718899
23.36171913 -2.297966957 -4.932999134
23.37013054 -2.371210098 -4.93631506
23.38220978 -2.444931984 -4.940458775
23.38620949 -2.590511084 -4.944602966
23.41023064 -2.665899992 -4.951441765
23.41942978 -2.739756107 -4.955172062
23.43617058 -2.814625978 -4.960559845
23.43712997 -2.887710094 -4.962633133
23.4543705 -2.962912083 -4.968227863
23.46845055 -3.037868977 -4.973200798
23.46775055 -3.111011982 -4.975066185
23.47652054 -3.1854949 -4.979002953
23.47438049 -3.258580923 -4.980660915
23.4623394 -3.330308914 -4.980247021
23.50041962 -3.409298897 -4.990608215
23.45017052 -3.475500107 -4.982111931
23.43359947 -3.546549082 -4.980868816
23.42260933 -3.618426085 -4.980868816
23.49263954 -1.084836006 -5.079464912
23.12811089 -1.139127016 -5.000770092
23.09132957 -1.208341956 -4.993537903
23.12556076 -1.281286955 -5.001832962
23.22979927 -1.358559966 -5.025442123
23.16798019 -1.426280022 -5.0128932
23.18298912 -1.498612046 -5.017147064
23.21825981 -1.572435021 -5.025866985
23.24257088 -1.645730972 -5.03224802
23.29393005 -1.721204996 -5.044583797
23.27684975 -1.791761994 -5.042030811
23.28681946 -1.864413977 -5.045433998
23.30435944 -1.93779099 -5.050539017
23.30414963 -2.009782076 -5.051815033
23.33778 -2.084832907 -5.060534954
23.34295082 -2.157500982 -5.06308794
23.33525085 -2.229012966 -5.062874794
23.34288025 -2.302031994 -5.066064835
23.37459946 -2.377590895 -5.07457304
23.3866291 -2.451328993 -5.078826904
23.40620041 -2.52600193 -5.084782124
23.4070797 -2.59876895 -5.086696148
23.41646957 -2.672563076 -5.09052515
23.4343605 -2.747462988 -5.096267223
23.45202065 -2.822498083 -5.102009773
23.4636097 -2.896948099 -5.10647583
23.46624947 -2.970391989 -5.109028816
23.4657402 -3.043503046 -5.110942841
23.46017075 -3.11599493 -5.111793995
23.46114922 -3.189402103 -5.114132881
23.45899963 -3.262442112 -5.11583519
23.44500923 -3.333848 -5.114984035
23.48591995 -3.413207054 -5.126255989
23.42604065 -3.47792697 -5.115408897
23.4220295 -3.550806046 -5.11689806
23.39460945 -3.620106936 -5.113282204
23.49341965 -3.709233999 -5.137528896
27.96446991 -0.4246771932 -6.232308865
27.92206001 -0.5097227097 -6.223118782
27.92329025 -0.595446229 -6.22377491
27.92328072 -0.6811584234 -6.224213123
27.88692093 -0.765886426 -6.216554165
27.88151932 -0.851349473 -6.215898037
27.87389946 -0.9367210865 -6.214803219
23.37845039 -1.073189974 -5.208648205
23.25906944 -1.139233947 -5.182608128
23.08688927 -1.201820016 -5.144752026
23.14155006 -1.275863051 -5.157880783
23.20376015 -1.350707054 -5.172760963
23.1274395 -1.417474985 -5.15656805
23.16193008 -1.490928054 -5.165320873
23.18646049 -1.563948989 -5.171885014
23.20879936 -1.636998057 -5.178012848
23.21826935 -1.709267974 -5.181294918
23.25378036 -1.783625007 -5.190485954
23.27153969 -1.856819034 -5.195736885
23.29199028 -1.93038094 -5.201645851
23.30734062 -2.003669024 -5.206459999
23.31274986 -2.076203108 -5.209085941
23.32570076 -2.149506092 -5.213461876
23.33453941 -2.222537041 -5.216963768
23.34704018 -2.296025038 -5.221340179
23.36026955 -2.369709015 -5.225934982
23.36647987 -2.442785978 -5.228999138
23.37730026 -2.516444921 -5.233157158
23.38983917 -2.59040904 -5.237751961
23.40505028 -2.664803028 -5.243003845
23.41614914 -2.738862991 -5.24737978
23.43185997 -2.81359601 -5.252851009
23.44345093 -2.887974977 -5.257445812
23.44706917 -2.961473942 -5.2602911
23.44561005 -3.034396887 -5.262042046
23.44585991 -3.107594013 -5.264229774
23.44782066 -3.181083918 -5.266856194
23.44375038 -3.253809929 -5.268167973
23.42206955 -3.324074984 -5.265542984
23.45425034 -3.402077913 -5.275170803
23.41087914 -3.469156981 -5.26773119
23.40302086 -3.541402102 -5.268386841
23.34671974 -3.606185913 -5.25810194
23.38759995 -3.685997009 -5.269918919
27.76573944 -0.6810532808 -6.362130165
27.69870949 -0.8494936228 -6.347754955
23.27576065 -1.071238995 -5.330942154
23.1185894 -1.135084987 -5.295453072
23.05661011 -1.202957034 -5.281976223
23.09465027 -1.276000977 -5.291635036
23.1139698 -1.348212004 -5.297025204
23.09804916 -1.418401003 -5.29433012
23.06150055 -1.487187028 -5.286918163
23.14432907 -1.563848019 -5.307133198
23.19650078 -1.710419059 -5.321507931
23.22514915 -1.784191012 -5.329369068
23.23995972 -1.857066989 -5.334085941
23.25941086 -1.930454969 -5.339925766
23.27182007 -2.003392935 -5.344192982
23.28206062 -2.076252937 -5.348011971
23.29014015 -2.14901495 -5.351380825
23.28926086 -2.221014023 -5.352728844
23.30270004 -2.294460058 -5.357446194
23.31687927 -2.368108034 -5.36238718
23.33275986 -2.4420681 -5.367777824
23.34453964 -2.515728951 -5.372270107
23.37545013 -2.591634035 -5.381254196
23.39061928 -2.665987015 -5.38664484
23.38911057 -2.738528967 -5.388216972
23.40382004 -2.813065052 -5.393608093
23.40958023 -2.886642933 -5.396976948
23.41124916 -2.959794044 -5.399447918
23.41268921 -3.032983065 -5.401917934
23.41872978 -3.106848955 -5.405511856
23.4264698 -3.18104291 -5.409554958
23.4137001 -3.252496958 -5.408882141
23.38624954 -3.321846008 -5.404839039
23.39908981 -3.396939993 -5.410229206
23.37698936 -3.466995001 -5.407534122
23.35180092 -3.536509037 -5.404164791
23.30616951 -3.602772951 -5.396079063
23.28634071 -3.672892094 -5.394056797
27.95750999 -0.4303376973 -6.569743156
26.45199966 -0.7319126725 -6.215466022
26.34651947 -0.80989182 -6.191081047
26.28848076 -0.8888427019 -6.177968025
26.33910942 -0.9714639783 -6.190620899
23.25172997 -1.143421054 -5.463202953
22.96530914 -1.19996798 -5.396258831
23.04410934 -1.274991035 -5.415812969
23.05758095 -1.34670496 -5.419953823
23.06790924 -1.418334007 -5.42340517
23.08675957 -1.490604043 -5.428925991
23.14032936 -1.565368056 -5.442728996
23.18104935 -1.639582038 -5.453540802
23.16814041 -1.710119009 -5.451701164
23.16570091 -1.781414032 -5.452391148
23.20183945 -1.85581398 -5.462284088
23.20088005 -1.927391052 -5.463434219
23.20940971 -1.999814034 -5.46688509
23.21575928 -2.072134972 -5.469874859
23.21705055 -2.144067049 -5.471714973
23.23361015 -2.217504978 -5.477237225
23.24412918 -2.290492058 -5.481378078
23.28927994 -2.367108107 -5.493800163
23.28577995 -2.438952923 -5.494719982
23.31874084 -2.587152958 -5.506223202
23.32518959 -2.660336018 -5.509674072
23.40101051 -2.741738081 -5.529687881
23.35866928 -2.809449911 -5.521636009
23.35766983 -2.88205409 -5.523477077
23.34486008 -2.953212023 -5.522555828
23.37911987 -3.030448914 -5.532907963
23.37742996 -3.103185892 -5.534749031
23.67638016 -3.216823101 -5.608365059
23.36854935 -3.24804306 -5.537280083
23.36618042 -3.320816994 -5.539120197
23.3501091 -3.391648054 -5.537740231
23.29820061 -3.457125902 -5.527847767
23.2614994 -3.524651051 -5.521636009
23.2303791 -3.592875004 -5.516805172
27.89076042 -0.2601394951 -6.728380203
26.3871994 -0.7320464253 -6.365687847
26.22553062 -0.8080915809 -6.327013016
25.57414055 -0.8665723801 -6.169485092
25.44317055 -0.9402930737 -6.138357162
22.92980003 -1.270444036 -5.532770157
23.08879089 -1.492522955 -5.574510098
23.06373978 -1.561972976 -5.569558144
23.10438919 -1.635949016 -5.580640793
23.14676094 -1.71033299 -5.592195988
23.18403053 -1.784618974 -5.602571964
23.19684982 -1.857211947 -5.607052803
23.21235085 -1.930140972 -5.612240791
23.22180939 -2.002681971 -5.616014004
23.22524071 -2.074780941 -5.618371964
23.22554016 -2.146651983 -5.620022774
23.23335075 -2.219281912 -5.623559952
23.24383926 -2.292267084 -5.627805233
23.25024033 -2.364943981 -5.631106853
23.26993942 -2.439100027 -5.637710094
23.29519081 -2.514024019 -5.645728111
23.31151962 -2.588160992 -5.651622772
23.3179493 -2.661319971 -5.65515995
23.32897949 -2.735109091 -5.659876823
23.34362984 -2.809454918 -5.665535927
23.34262085 -2.88201189 -5.667422771
23.3375206 -2.954101086 -5.668365955
23.33510017 -3.026560068 -5.670016766
23.34304047 -3.100440025 -5.674262047
23.3247509 -3.170861959 -5.672140121
23.28893089 -3.238792896 -5.665771961
23.24809074 -3.305850029 -5.658226013
23.22726059 -3.37562108 -5.655632019
23.18604088 -3.442298889 -5.648086071
23.16671944 -3.512105942 -5.645963192
25.96058083 -0.8018398881 -6.416431904
25.36248016 -0.8612859845 -6.268308163
25.24043083 -0.9346811175 -6.238635063
22.88711929 -1.410771966 -5.660130978
22.91464043 -1.483049035 -5.668091774
23.01745987 -1.560624957 -5.694869995
23.10548973 -1.637817025 -5.718029022
23.14488029 -1.711985946 -5.729125977
23.16468048 -1.784922957 -5.735398769
23.17941093 -1.857609987 -5.740465164
23.13780975 -1.925737977 -5.731538773
23.17337036 -2.000300884 -5.741911888
23.19226074 -2.073632956 -5.748185158
23.19255066 -2.145401001 -5.749874115
23.19165993 -2.217098951 -5.751320839
23.20019913 -2.289762974 -5.755180836
23.20850945 -2.362502098 -5.759040833
23.21949005 -2.435616016 -5.763625145
23.21480942 -2.507153034 -5.76434803
23.25716019 -2.583934069 -5.776893139
23.28383064 -2.659235954 -5.785577774
23.25147057 -2.727830887 -5.779547215
23.30850983 -2.807039976 -5.79595089
23.30846024 -2.879606962 -5.798121929
23.26195908 -2.946348906 -5.788713932
23.23933983 -3.015954018 -5.785336018
23.17610931 -3.080080032 -5.771827221
23.18386078 -3.153522015 -5.776168823
23.14332008 -3.220355988 -5.76844883
23.14582062 -3.293119907 -5.771584988
23.13849068 -3.364533901 -5.772308826
23.14916992 -3.438642025 -5.777616978
25.05581093 -0.9178673029 -6.355389118
25.01026917 -0.9930397272 -6.344512939
23.23880959 -1.351433039 -5.897634029
23.46087074 -1.436591983 -5.955471039
22.8307209 -1.468294024 -5.795553207
22.81160927 -1.537353039 -5.791844845
22.84523964 -1.680495024 -5.802968025
22.88248062 -1.753834963 -5.813842773
22.9677906 -1.83127296 -5.837077141
23.02289963 -1.906769991 -5.852649212
23.09996986 -1.984531999 -5.873905182
23.14974976 -2.060376883 -5.888240814
23.1346302 -2.130589008 -5.886015892
23.14439011 -2.203116894 -5.890217781
23.14620018 -2.274966002 -5.89244318
23.16609955 -2.348705053 -5.899363995
23.14625931 -2.418457031 -5.896150112
23.12235069 -2.487694979 -5.891949177
23.11364937 -2.558515072 -5.891701221
23.0960598 -2.628318071 -5.889229774
23.08403969 -2.698713064 -5.888240814
23.09147072 -2.987258911 -5.899116993
23.06298065 -3.055541992 -5.894173145
23.04965973 -3.125762939 -5.893184185
23.06011963 -3.19926095 -5.898375034
23.06170082 -3.271626949 -5.901340961
23.03620911 -3.340137959 -5.897386074
24.79603004 -0.9145277739 -6.441467762
23.87128067 -1.100494981 -6.20211792
23.68032074 -1.164504051 -6.153086185
23.65634918 -1.236088037 -6.147778034
23.67563057 -1.309942007 -6.15384388
23.56427956 -1.376307964 -6.125789165
23.61403084 -1.451922059 -6.139943123
23.55153084 -1.520619988 -6.124777794
22.79476929 -1.541985989 -5.927889824
22.74263954 -1.608566046 -5.915504932
23.66872978 -1.747077942 -6.159403801
23.6854496 -1.821390986 -6.165216923
23.70289993 -1.895900011 -6.171282768
23.74324989 -1.972455978 -6.183414936
23.81517029 -2.052020073 -6.203886986
23.81164932 -2.125332117 -6.204646111
23.85993004 -2.203447104 -6.219051838
23.8559494 -2.276913881 -6.219810009
23.86041069 -2.351231098 -6.22284317
23.84538078 -2.423640013 -6.220820904
23.84457016 -2.497490883 -6.22258997
23.84737968 -2.571774006 -6.225370884
23.85572052 -2.646739006 -6.22966814
23.87055969 -2.722547054 -6.235733986
23.89957047 -2.800158978 -6.24559021
23.82266998 -2.865264893 -6.22764492
23.7782402 -2.933954 -6.218294144
23.83535004 -3.015269995 -6.235733986
23.87013054 -3.094104052 -6.247360229
23.86436081 -3.167830944 -6.248371124
23.9187603 -3.249758959 -6.265305042
23.86556053 -3.317131042 -6.253931046
23.88208961 -3.394145966 -6.261007786
24.77596092 -0.9831131101 -6.589604855
23.8703804 -1.020552039 -6.348082066
23.78222084 -1.089890003 -6.325351238
23.61202049 -1.299970031 -6.282729149
23.63299942 -1.373860955 -6.289444923
23.6576004 -1.448130012 -6.297194004
23.72248077 -1.598261952 -6.317083836
23.70783043 -1.670356035 -6.314500809
23.67561913 -1.741099 -6.307269096
23.6672802 -1.813505054 -6.306494236
23.69145966 -1.888486028 -6.314500809
23.71924973 -1.963950992 -6.323543072
23.74390984 -2.039355993 -6.331809044
23.72792053 -2.111335993 -6.329225063
23.73575974 -2.185451031 -6.333099842
23.75395012 -2.260639906 -6.339816093
23.79015923 -2.337755919 -6.351439953
23.78288078 -2.410732031 -6.351439953
23.81476974 -2.487799883 -6.362030983
23.8252697 -2.562813997 -6.366939068
23.84705925 -2.639190912 -6.374947071
23.8129406 -2.709392071 -6.367971897
23.77765083 -2.779295921 -6.360740185
23.87931061 -2.865466118 -6.390446186
23.90781021 -2.943316936 -6.400519848
23.90057945 -3.01689291 -6.401035786
23.92090988 -3.094046116 -6.409043789
23.92923927 -3.244527102 -6.416534901
23.93544006 -3.320182085 -6.420927048
23.95384026 -3.397669077 -6.428676128
23.94712067 -3.471697092 -6.429708958
23.73298073 -1.162421942 -6.459897995
23.73508072 -1.235528946 -6.461481094
23.74946976 -1.309350014 -6.466495037
23.71356964 -1.380357981 -6.457787037
23.71018028 -1.453161955 -6.458051205
23.72583008 -1.527197003 -6.463592052
23.71718025 -1.599720001 -6.462536812
23.70734978 -1.672137022 -6.461216927
23.70980072 -1.745429039 -6.463327885
23.71973038 -1.819340944 -6.467549801
23.68037987 -1.889420033 -6.458314896
23.69561958 -1.963812947 -6.464119911
23.76828957 -2.043271065 -6.485756874
23.77440071 -2.117292881 -6.489188194
23.77066994 -2.1904881 -6.48997879
23.77728081 -2.264683962 -6.493673801
23.83069992 -2.343565941 -6.510297775
23.83202934 -2.417541981 -6.512671947
23.82737923 -2.490947008 -6.513463974
23.77647018 -2.559392929 -6.501589775
23.91135025 -2.648139 -6.540906906
23.90216064 -2.721376896 -6.540643215
23.92435074 -2.798279047 -6.549087048
23.91374016 -2.871434927 -6.548559189
23.90673065 -2.945024014 -6.549087048
23.93778038 -3.023428917 -6.560170174
23.9073391 -3.094131947 -6.554365158
23.88147926 -3.165311098 -6.549879074
23.90893936 -3.243618011 -6.560170174
23.89982986 -3.317086935 -6.560432911
23.84847069 -3.38456893 -6.549087048
23.85707092 -3.460488081 -6.554365158
23.67046928 -1.153931975 -6.589550018
23.70047951 -1.228291988 -6.598978996
23.69275093 -1.300786972 -6.597901821
23.70018959 -1.374138951 -6.601134777
23.67470932 -1.445551991 -6.595208168
23.72302055 -1.521569967 -6.610025883
23.69210052 -1.665616989 -6.604097843
23.70256042 -1.812574029 -6.610025883
24.01305962 -2.728475094 -6.720758915
23.96439934 -2.797441959 -6.709443092
23.92797089 -2.867625952 -6.701630116
23.88369942 -2.936671972 -6.691660881
24.01885033 -3.028129101 -6.732344151
23.8967495 -3.087238073 -6.700551987
23.86425018 -3.157505035 -6.694086075
23.86590004 -3.232255936 -6.697319031
23.87113953 -3.307575941 -6.701630116
23.67280006 -1.164134026 -6.73766613
23.66334915 -1.23645401 -6.736015797
23.67288971 -1.309790015 -6.739864826
23.6668396 -1.382300019 -6.739315987
23.73658943 -1.532570958 -6.761863232
23.67996979 -1.601881981 -6.747014999
23.69412994 -1.675881028 -6.752513885
23.55942917 -1.739009023 -6.71539402
23.69355011 -3.071213007 -6.792109013
23.69260025 -3.145028114 -6.794583797
23.75094032 -3.301198006 -6.817131042
23.68643951 -3.366338015 -6.801457882
23.68265915 -3.439959049 -6.803382874
23.52692986 -1.653488994 -6.855926037
23.32743073 -1.711408019 -6.798951149
23.37088013 -1.786697984 -6.813264847
23.33353996 -2.57824707 -6.823929787
23.39800072 -2.658054113 -6.845261097
23.35255051 -2.725486994 -6.834314823
23.40031052 -2.803853989 -6.850873947
23.41827011 -2.878911018 -6.858733177
23.44075012 -2.954704046 -6.867994785
23.43347931 -3.026850939 -6.868556023
23.45928955 -3.103387117 -6.878941059
23.48103905 -3.17959404 -6.888203144
23.49209976 -3.254514933 -6.894378185
23.52857018 -3.333168983 -6.908130169
23.49922943 -3.402586937 -6.902516842
23.47538948 -3.472698927 -6.898588181
23.70133972 -1.092139006 -7.036800861
23.31619072 -1.217821956 -6.923888206
23.27980995 -1.287551999 -6.914168835
23.27000999 -1.358633041 -6.912454128
23.25617027 -1.429430008 -6.909595013
23.21628952 -1.498491049 -6.899018764
23.21731949 -1.570098042 -6.900733948
23.23438072 -1.642874002 -6.907309055
23.2234993 -1.713724971 -6.905592918
23.22481918 -1.785480022 -6.907594204
23.22974014 -1.857563019 -6.910738945
23.22583961 -1.928980947 -6.91131115
23.24367905 -2.002283096 -6.918457031
23.26511002 -2.076052904 -6.926746845
23.28248978 -2.14962101 -6.933893204
23.27864075 -2.221313 -6.934751034
23.29937935 -2.295444012 -6.943039894
23.30462074 -2.368172884 -6.946755886
23.31534958 -2.441555023 -6.952188015
23.32204056 -2.514614105 -6.956476212
23.32184029 -2.586997986 -6.958763123
23.33378983 -2.660815001 -6.964766026
23.33312988 -2.733282089 -6.967051983
23.34081078 -2.806797981 -6.971911907
23.3491993 -2.880503893 -6.97705698
23.37067986 -2.955971003 -6.986205101
23.38905907 -3.031228065 -6.994493961
23.43648911 -3.183710098 -7.014503956
23.39670944 -1.216626048 -7.090490818
23.39286995 -1.288401008 -7.090490818
40.64286041 -8.862669945 -3.901812077
39.81222153 -9.457136154 -5.596099854
39.72233963 -9.564623833 -5.587506771
40.4108696 -9.209918976 -5.92677784
39.90699005 -9.223967552 -5.856547832
39.80429077 -9.328966141 -5.845579147
39.76971054 -9.449667931 -5.844724178
39.9967804 -9.247353554 -6.12599802
39.90177917 -9.354445457 -6.11575222
39.90945816 -9.485507011 -6.121395111
39.99728012 -9.354199409 -6.393767834
39.95492935 -9.47367382 -6.391602993
