# .PCD v0.7 - Point Cloud Data file format
VERSION 0.7
FIELDS x y z
SIZE 4 4 4
TYPE F F F
COUNT 1 1 1
WIDTH 50
HEIGHT 1
VIEWPOINT 0 0 0 1 0 0 0
POINTS 50
DATA ascii
14.88922977 30.73064041 -6.771654129
14.99557972 30.50097084 -6.955833912
14.44029999 30.04365921 -7.216142178
14.54347992 30.02207947 -7.221672058
14.68257046 30.56985092 -7.565607071
30.95536995 -27.71884918 -5.941878796
30.94445038 -27.88060951 -5.95626688
30.89763069 -28.01063919 -5.96381712
27.41243935 -27.91245079 -6.810088158
23.18154907 8.78304863 -6.741187096
23.16938019 8.785040855 -7.205076218
23.25822067 8.737207413 -7.224442005
23.24084091 8.649406433 -7.210689068
23.2915802 8.587029457 -7.218266964
23.27905083 8.501372337 -7.206198215
23.3032093 8.429260254 -7.205636978
23.29734039 8.3463974 -7.195814133
23.27309036 8.257230759 -7.180377007
23.38524055 8.216335297 -7.207321167
23.36598969 8.440776825 -7.370109081
23.38274956 8.365822792 -7.367249966
23.4543705 8.310370445 -7.381828785
24.15430069 41.43856049 -7.746976852
24.40357971 41.28192902 -7.745534897
40.34848022 -11.69295025 -5.499742031
40.32764053 -11.82114983 -5.501832962
40.2750206 -11.9400301 -5.499610901
40.26194 -12.0706501 -5.502879143
40.3996582 -11.58388996 -5.748602867
40.27363968 -11.81567001 -5.740828991
40.18400955 -11.92339039 -5.73319006
40.12541962 -12.04006004 -5.730051994
40.27058029 -11.81748009 -6.001852989
40.27494049 -11.95308971 -6.007977962
40.63619995 -8.742894173 -3.635538101
40.60200119 -8.853761673 -3.897851944
40.59883881 -8.870562553 -4.139441013
39.83282089 -9.204199791 -5.59091711
39.79281998 -9.323649406 -5.589280128
39.81896973 -9.458739281 -5.597054958
39.87945938 -9.346583366 -5.85668993
39.80340958 -9.457675934 -5.849709988
40.17156982 -9.805938721 -5.912961006
40.01026917 -9.250472069 -6.12807703
39.98265839 -9.373403549 -6.128225803
39.95178986 -9.495567322 -6.127929211
39.95420074 -9.625735283 -6.132829189
40.02098083 -9.230335236 -6.392994881
39.99150848 -9.35284996 -6.392839909
39.95492935 -9.47367382 -6.391602993
