# .PCD v0.7 - Point Cloud Data file format
VERSION 0.7
FIELDS x y z
SIZE 4 4 4
TYPE F F F
COUNT 1 1 1
WIDTH 69
HEIGHT 1
VIEWPOINT 0 0 0 1 0 0 0
POINTS 69
DATA ascii
-17.48497009 -5.903148174 -5.809401989
-17.50933075 -5.851593018 -5.811516762
-17.52990913 -5.798745155 -5.812423229
-17.46525955 -5.891435146 -5.912151814
-17.5383091 -5.856213093 -5.930901051
-17.59324074 -5.814623833 -5.943501949
-17.59749985 -5.880990982 -6.073288918
-17.59020996 -5.818624973 -6.064526081
-17.67658043 -5.78708601 -6.088314056
-17.19078064 -5.916523933 -6.062780857
-17.48726082 -5.898797035 -6.155086994
-17.57541084 -5.868536949 -6.179914951
-17.6104393 -5.820240021 -6.185963154
-17.31966972 -5.899848938 -6.205045223
-17.50089073 -5.901725769 -6.263846874
-17.57278061 -5.865986824 -6.283233166
-17.87141991 -6.273670197 -6.780901909
-17.88969994 -6.218502998 -6.780562878
-17.91135979 -6.164506912 -6.781579971
-17.54908943 -5.866549969 -7.082880974
14.97138023 30.45174026 -6.944544792
31.21943092 -29.89575958 -5.660109997
30.99275017 -28.0933609 -5.721457958
30.95622063 -27.89121056 -5.958546162
24.25787926 -29.19449043 -6.122609138
24.18516922 -29.28932953 -6.126935005
27.11870003 -25.98443985 -6.293416023
24.25068092 -29.00811005 -6.335810184
24.04343033 -27.01704979 -6.729218006
34.18355942 -0.1044567972 -6.148551941
34.1771698 -0.2092936933 -6.147482872
34.15753937 -0.4187791944 -6.144277096
34.24097824 -1.15557301 -6.162445068
34.27070999 -1.261849999 -6.1685009
34.139431 -0.1006285027 -6.349911213
34.0968895 -0.3097268045 -6.34218502
34.07120895 -0.4140341878 -6.337585926
34.04814911 -0.5182319283 -6.333539009
34.04246902 -0.6226158142 -6.332802773
34.06299973 -0.7275366783 -6.337034225
34.11072922 -0.8332617879 -6.346415997
34.1512413 -0.9390975237 -6.354508877
34.18651962 -1.045039058 -6.361683846
34.20476151 -1.150643945 -6.365730762
34.22856903 -1.256587982 -6.370881081
34.2294693 -1.361788988 -6.3718009
34.23397064 -1.467175961 -6.373456001
40.6615181 -8.748343468 -3.63782692
40.6282692 -8.859487534 -3.900398016
40.64355087 -8.880331039 -4.144042015
40.70576859 -8.609796524 -4.415913105
40.68013 -8.734848022 -4.416018963
40.4523201 -9.730270386 -5.446678162
40.43809128 -9.474845886 -5.680535793
39.92016983 -9.482780457 -5.611378193
40.5801506 -9.902996063 -5.713274002
39.94942093 -9.233775139 -5.862815857
39.86597061 -9.343420982 -5.854695797
39.81496811 -9.460421562 -5.851418972
40.3660202 -9.722278595 -5.937320232
40.49274063 -9.884332657 -5.960540771
39.98136139 -9.243789673 -6.123621941
39.94511032 -9.364601135 -6.122434139
39.91812134 -9.487565041 -6.122731209
40.48585892 -9.753807068 -6.214950085
40.49320984 -9.887117386 -6.220740795
40.0190506 -9.229891777 -6.392684937
40.05596161 -9.367925644 -6.403205872
39.94340134 -9.470938683 -6.389746189
