# .PCD v0.7 - Point Cloud Data file format
VERSION 0.7
FIELDS x y z
SIZE 4 4 4
TYPE F F F
COUNT 1 1 1
WIDTH 118
HEIGHT 1
VIEWPOINT 0 0 0 1 0 0 0
POINTS 118
DATA ascii
14.96144009 30.43153 -6.939908981
12.33642006 34.16014099 -7.653913021
12.44686031 34.13776016 -7.65743494
14.75265026 30.9362793 -7.420749187
14.51099014 30.19072914 -7.251660824
14.57798004 30.0933094 -7.238899231
14.65351963 30.01420021 -7.230605125
14.59512997 30.3877697 -7.520309925
14.61347008 30.18827057 -7.481797218
14.49600029 30.16472054 -7.871364117
31.2567997 -29.56600952 -5.633708
30.96706009 -28.07007027 -5.716683865
30.96356964 -27.89782906 -5.959970951
24.38400078 -28.9864006 -6.347447872
23.97351074 -26.93848038 -6.709536076
40.78713989 -8.775371552 -3.649182081
40.65132904 -8.882029533 -4.144842148
39.05675125 -0.1127000004 -4.143006802
39.13586044 -0.353074491 -4.151628017
39.11569977 -0.4729110003 -4.149606228
39.18067932 -0.5939257741 -4.156737804
39.18960953 -0.7143272758 -4.157907963
39.20412827 -0.8349164128 -4.159718037
39.22325897 -0.9557225108 -4.16205883
39.23205948 -1.076380968 -4.163337231
39.24248886 -1.197162986 -4.16482687
39.2594986 -1.31825304 -4.167061806
39.26720047 -1.439131021 -4.168338776
40.76414108 -8.622143745 -4.422298908
39.08710861 -0.008988541551 -4.380897999
39.11371994 -0.1289947927 -4.38393116
39.12408066 -0.2490631044 -4.385167122
39.14300156 -0.3692806065 -4.387413979
39.15758133 -0.489566803 -4.389211178
39.17477036 -0.6099923849 -4.391345024
39.1866188 -0.7304353714 -4.39291811
39.23287964 -0.8517121077 -4.398421764
39.28968048 -0.9735503197 -4.405161858
39.24478912 -1.092923045 -4.400444984
39.27402878 -1.214331985 -4.404150963
39.24826813 -1.334074974 -4.401679993
39.23307037 -1.454076052 -4.400444984
39.15869904 -0.004657725804 -4.631328106
39.17835999 -0.1248579994 -4.633696079
39.18970108 -0.2451293021 -4.6351161
39.18579102 -0.3653326929 -4.634760857
39.19044113 -0.4856250882 -4.635470867
39.20465088 -0.6061028242 -4.637365818
39.22842026 -0.7268561125 -4.640443802
39.22005081 -0.8470752239 -4.639733791
39.22917938 -0.967690289 -4.641154766
39.21609879 -1.087764025 -4.639970779
39.21852875 -1.208256006 -4.64068079
39.23548126 -1.329277039 -4.643167973
39.21931076 -1.449203014 -4.641746998
39.19602966 -0.0003079808084 -4.885651112
39.17797852 -0.1205053031 -4.88340807
39.21710968 -0.2409437001 -4.888392925
39.18741989 -0.360994786 -4.884778976
39.16727066 -0.4809874892 -4.882411003
39.16759872 -0.6011791229 -4.882659912
39.21020889 -0.7221617103 -4.888268948
39.17905045 -0.8418362737 -4.884654045
39.19512939 -0.9624940753 -4.887022018
39.34273911 -1.086899042 -4.905968189
39.16963959 -1.202394962 -4.884654045
39.21831894 -1.324332952 -4.891260147
39.16648102 -1.442895055 -4.885276794
40.7888298 -8.766152382 -5.202736855
38.98363876 -0.112486802 -5.100977898
39.08126068 -0.2326737046 -5.113917828
39.09423828 -0.3526977897 -5.115746975
39.11577988 -0.4729118943 -5.11875391
39.06259155 -0.5921322703 -5.111958027
39.03184891 -0.7114470005 -5.108167171
39.08993912 -0.8324810863 -5.116139889
39.08224869 -0.9522824883 -5.115486145
39.11481857 -1.073161006 -5.120192051
39.11629868 -1.193308949 -5.120844841
39.1649704 -1.315075994 -5.127771854
39.08644104 -1.432500958 -5.11796999
38.95658112 -0.002160768956 -5.325740814
38.97422028 -0.1217337027 -5.328197002
38.94789886 -0.2411445975 -5.324649811
39.0401001 -0.3614971042 -5.337471962
39.02296066 -0.4810732007 -5.335289001
39.02130127 -0.6007916927 -5.335289001
39.00440979 -0.7202299833 -5.333242893
39.02677917 -0.840423882 -5.336654186
39.04877853 -0.9607619047 -5.340064049
39.82413101 -9.202192307 -5.589688778
39.76691818 -9.446375847 -5.589688778
39.27249908 -0.004670139868 -5.613801956
39.56330109 -0.1260810047 -5.655683994
39.58449936 -0.2475948036 -5.658817768
39.59840012 -0.3691754937 -5.660954952
38.92802048 -0.48237589 -5.564654827
39.61616898 -0.6124609113 -5.663947105
39.6210289 -0.7341269255 -5.664944172
39.4375 -0.8517696857 -5.638875008
39.8052597 -9.329192162 -5.845720768
39.76971054 -9.449667931 -5.844724178
39.75091934 -1.10510397 -5.932948112
39.65047073 -1.224064946 -5.918395996
39.66036987 -1.346174002 -5.920475006
39.94377899 -9.235102654 -6.11783123
39.86904907 -9.346772194 -6.110702991
39.86809158 -9.475675583 -6.115008831
39.4887619 -0.107069999 -6.145149231
40.0190506 -9.229891777 -6.392684937
40.01171112 -9.357575417 -6.396089077
39.96839142 -9.476865768 -6.393767834
39.23643112 -0.8449407816 -6.331703186
39.40830994 -0.9696115851 -6.360063076
39.00947189 -0.1243214011 -6.538138866
39.07004166 -0.244381994 -6.548447132
39.06386185 -0.4840578139 -6.547781944
40.02286911 -1.60185802 -6.714366913
