# .PCD v0.7 - Point Cloud Data file format
VERSION 0.7
FIELDS x y z
SIZE 4 4 4
TYPE F F F
COUNT 1 1 1
WIDTH 83
HEIGHT 1
VIEWPOINT 0 0 0 1 0 0 0
POINTS 83
DATA ascii
10.58864975 27.69852066 -7.705949783
14.96609974 31.13237953 -6.850481987
14.97482967 30.45878029 -6.946157932
14.50463963 30.17752075 -7.24846983
14.59587002 30.13025093 -7.247831821
14.66637993 30.0405407 -7.236985207
14.7402401 30.93273926 -7.644602776
14.67623043 30.55665016 -7.562325001
14.63216972 30.22691917 -7.491425991
30.95401001 -27.88921928 -5.958118916
27.16142082 -26.02536964 -6.30339098
20.7156601 -17.75447083 -5.739739895
20.67738914 -17.83200073 -5.744298935
20.67757034 -17.73067093 -5.889386177
20.6186409 -17.79018974 -5.888110161
20.56543922 -17.8546505 -5.888535023
20.51498032 -17.9215107 -5.889811039
20.49439049 -18.0146904 -5.899806976
20.64488029 -17.69272041 -6.057686806
20.57128906 -17.7394104 -6.051998138
20.52487946 -17.80946922 -6.054405212
20.45911026 -17.86273003 -6.051123142
20.39468956 -17.91704941 -6.048277855
20.34985924 -17.9885807 -6.05134201
20.6777401 -17.61586952 -6.221523762
20.63690948 -17.6906395 -6.225566864
20.50884056 -17.80032921 -6.219727039
20.44680023 -17.85675049 -6.217481136
20.3567791 -17.88851929 -6.206698895
20.30327034 -17.95218086 -6.207149029
20.25101089 -18.01697922 -6.208046913
20.22249985 -18.10306931 -6.216358185
20.91476059 -17.82040024 -6.455408096
20.69253922 -17.96237946 -6.437464237
20.45409966 -17.86573029 -6.379951954
20.35679054 -17.89113045 -6.366609097
20.28940964 -17.94253922 -6.362698078
20.26334953 -18.03058052 -6.371900082
21.02877045 -17.80907059 -6.64702177
20.94961929 -17.85269928 -6.639239788
20.84310913 -17.87261009 -6.622732162
20.68148994 -17.84441948 -6.58853817
20.59288979 -17.87848091 -6.577691078
20.50794029 -17.9153595 -6.568021774
20.48060989 -18.00258064 -6.576982975
20.83239937 -17.8660202 -6.782157898
20.70107079 -17.86391068 -6.757069111
20.66156006 -17.94070053 -6.762135029
20.48621941 -18.01011086 -6.740664005
20.41559982 -18.05937958 -6.735598087
20.34922028 -18.11224937 -6.731979847
20.70338058 -17.85181046 -6.933021069
20.62729073 -17.89682961 -6.925852776
20.51417923 -18.02050018 -6.924863815
20.42902946 -18.05703926 -6.914730072
20.37136078 -18.11770058 -6.913989067
20.72467995 -17.87908936 -7.109724998
20.71211052 -17.97937012 -7.124383926
20.5759697 -17.97217941 -7.096330166
20.46313095 -18.09617043 -7.095571995
20.42848015 -18.17752075 -7.102900982
20.36108017 -18.2297802 -7.098856926
24.15693092 39.46981049 -7.472830772
40.73163986 -8.763428688 -3.644165039
40.64966965 -8.864154816 -3.902472019
40.62411118 -8.876083374 -4.142041206
39.83958054 -9.205760956 -5.591872215
39.81404114 -9.328621864 -5.592280865
39.78427124 -9.450496674 -5.592144012
39.7854805 -9.195882797 -5.838597775
39.80622101 -9.329418182 -5.845862865
39.75815964 -9.446922302 -5.843013763
39.93799973 -9.233766556 -6.116940022
39.87578964 -9.348350525 -6.11174202
39.87482071 -9.477275848 -6.116048813
39.98862076 -9.352174759 -6.392375946
39.95973969 -9.474814415 -6.392375946
35.19272995 9.861718178 -6.359488964
35.21332932 9.751073837 -6.357765198
35.27157974 9.650794029 -6.362937927
35.32004166 9.547678947 -6.36638689
35.4589119 9.352133751 -6.381044865
35.45492172 9.112929344 -6.587250233
