# .PCD v0.7 - Point Cloud Data file format
VERSION 0.7
FIELDS x y z
SIZE 4 4 4
TYPE F F F
COUNT 1 1 1
WIDTH 67
HEIGHT 1
VIEWPOINT 0 0 0 1 0 0 0
POINTS 67
DATA ascii
10.60937977 27.75274086 -7.721115112
14.99269962 30.94421959 -6.818990231
14.97525978 30.45965958 -6.946360111
12.47266006 34.20853043 -7.673391819
14.83067036 31.34707069 -7.508801937
14.55035019 30.27264023 -7.271440983
14.57798004 30.0933094 -7.238899231
14.6522398 30.01156998 -7.229967117
14.57231998 30.34026909 -7.5084939
14.61007023 30.18124962 -7.480047226
14.63671017 30.00123024 -7.44634819
14.59146023 30.13138008 -7.677001953
14.60332966 30.15076065 -7.879415989
33.66028976 -36.46257019 -6.794573784
31.28306961 -29.40954018 -5.622076988
30.95179939 -27.88722992 -5.957692146
24.86675072 -27.42963982 -6.889624119
24.71800041 -27.4342308 -6.871596813
24.61862946 -27.49309921 -6.867365837
24.46489906 -27.49065971 -6.847867012
31.99876022 9.917298317 -6.430111885
32.32102966 8.940237999 -6.436748028
32.36819839 8.84647274 -6.440730095
32.43310165 8.757365227 -6.448315144
32.45317841 8.656049728 -6.446987152
31.85284996 9.976950645 -6.618299961
31.8917408 9.881793022 -6.620060921
31.86751938 9.767234802 -6.608716011
31.91798973 9.675680161 -6.61301899
31.8986702 9.563065529 -6.602848053
31.89966011 9.456793785 -6.596980095
31.91157913 9.353916168 -6.593459129
31.93165016 9.253512383 -6.59169817
31.95329094 9.153613091 -6.59032917
31.99821091 9.060349464 -6.593850136
32.04663086 8.967951775 -6.598153114
32.06925964 8.868284225 -6.597175121
32.11808014 8.775801659 -6.60167408
32.19881821 8.691793442 -6.612823009
31.76672935 9.963062286 -6.81270504
31.76909065 9.85684967 -6.806656837
31.77779007 9.433643341 -6.783071041
31.8487606 9.030947685 -6.773999214
31.90366936 8.940858841 -6.779846191
31.95076942 8.848426819 -6.784079075
31.95508957 8.744157791 -6.779241085
31.99312019 8.64914608 -6.78166008
32.04693985 8.558279991 -6.787506104
32.00054169 8.543593407 -6.976480961
31.84546089 10.0820303 -6.623189926
40.69073105 -8.754628181 -3.640466928
40.63967133 -8.879481316 -4.143640995
40.64221954 -8.726707458 -4.411869049
40.64614105 -8.745034218 -4.66230011
39.83911896 -9.334497452 -5.595828056
39.80739975 -9.455991745 -5.595417976
39.79553986 -9.582249641 -5.597874165
39.89059067 -9.220178604 -5.854125977
39.85440826 -9.34071064 -5.852985859
39.80727005 -9.458591461 -5.850279808
39.77325058 -9.579515457 -5.849566936
39.98424911 -9.244458199 -6.124067783
39.91429901 -9.357379913 -6.11768198
39.88539886 -9.479790688 -6.11768198
40.00749969 -9.227227211 -6.390829086
39.9770813 -9.349474907 -6.390520096
39.94532013 -9.471394539 -6.39005518
