# .PCD v0.7 - Point Cloud Data file format
VERSION 0.7
FIELDS x y z
SIZE 4 4 4
TYPE F F F
COUNT 1 1 1
WIDTH 66
HEIGHT 1
VIEWPOINT 0 0 0 1 0 0 0
POINTS 66
DATA ascii
14.98260975 30.47459984 -6.94978714
12.37530041 34.26779175 -7.678157806
12.48305035 34.23701859 -7.679815769
14.59374046 30.12585068 -7.246768951
14.6522398 30.01156998 -7.229967117
14.61176968 30.18475914 -7.480922222
14.6521101 30.03280067 -7.454226017
31.20853996 -29.52037048 -5.624951839
31.22698021 -29.71986961 -5.644817829
31.17861938 -29.85667038 -5.652659893
30.96871948 -27.90246964 -5.960968018
30.90575981 -27.50750923 -6.174408913
30.87941933 -27.65431023 -6.186141014
30.8216095 -27.7734108 -6.191635132
30.81391907 -27.93824959 -6.207376003
27.38966942 -27.8892498 -6.804397106
24.08917046 -27.06845093 -6.742094994
27.26243973 -0.9237543941 -3.887517929
27.06391907 -0.9189875722 -4.027843952
23.13055992 -3.573303938 -4.340978146
22.9733696 -3.554932117 -4.450018883
22.86634064 -3.610239029 -4.431248188
22.67193985 -3.650875092 -4.395411015
22.96069908 -3.626945019 -4.597126007
22.53990936 -3.63140893 -4.514386177
22.3544693 -3.671940088 -4.479176998
22.15546036 -3.709100962 -4.44122982
22.04439926 -3.760077 -4.42108202
22.22233009 -3.710962057 -4.597624779
21.61429977 -3.745858908 -4.475461006
21.54194069 -3.801426888 -4.462760925
21.46269035 -3.855372906 -4.44864893
21.10639 -3.793087006 -4.502998829
20.98879051 -3.838460922 -4.480204105
21 -3.907130957 -4.485177994
21.02059937 -3.977724075 -4.492222786
20.43231964 -3.936772108 -4.489676952
20.32234001 -3.980284929 -4.467982769
19.96517944 -3.968435049 -4.525259018
19.84960938 -4.008811951 -4.501626015
19.87067986 -4.076552868 -4.509284973
18.2875309 -4.227132797 -4.514731884
17.97052002 -4.271811008 -4.5516119
17.88845062 -4.310331821 -4.534000874
17.99016953 -4.393272877 -4.56343317
17.60951996 -4.292254925 -4.583192825
17.53793907 -4.331851006 -4.567869186
17.52080917 -4.384695053 -4.566880226
15.40275002 29.02194023 -7.112136841
40.73065948 -8.76321888 -3.644077063
40.62631989 -8.859064102 -3.90020895
40.68923187 -8.606296539 -4.414103985
40.63639069 -8.725453377 -4.411230087
39.79571915 -9.324327469 -5.589688778
39.79391098 -9.452786446 -5.593509197
39.79948044 -9.32783699 -5.844865799
39.74948883 -9.444862366 -5.841732025
39.70589066 -9.56329155 -5.839594841
39.90621185 -9.226416588 -6.112039089
39.89311981 -9.352414131 -6.114415169
39.86520004 -9.474988937 -6.114562988
39.83979034 -9.598176003 -6.115158081
39.99497986 -9.224340439 -6.388817787
39.96841812 -9.347449303 -6.389126778
39.9376297 -9.469571114 -6.388817787
40.02019882 -9.506542206 -6.638215065
