# .PCD v0.7 - Point Cloud Data file format
VERSION 0.7
FIELDS x y z
SIZE 4 4 4
TYPE F F F
COUNT 1 1 1
WIDTH 204
HEIGHT 1
VIEWPOINT 0 0 0 1 0 0 0
POINTS 204
DATA ascii
12.79444027 -23.40726089 -5.942584991
12.6844101 -23.37607002 -5.924642086
12.60013962 -23.39167976 -5.918734074
12.52877045 -23.4310894 -5.918951988
12.44036007 -23.43839073 -5.911075115
12.3606596 -23.4617691 -5.907354832
12.27912998 -23.48143005 -5.902760029
12.19983006 -23.50513077 -5.899258137
12.12409019 -23.53550911 -5.897508144
12.10157967 -23.66990089 -5.922016144
11.99269962 -23.63555908 -5.904071808
11.88457966 -23.60165024 -5.886347771
11.8094902 -23.63277054 -5.885035038
11.73042965 -23.65576935 -5.881752014
11.65522003 -23.68639946 -5.880438805
11.58720016 -23.73168945 -5.882845879
11.52241993 -23.78380966 -5.887003899
11.4777298 -23.87796974 -5.901665211
11.46197033 -24.03372955 -5.931643963
11.47124004 -24.24430084 -5.975191116
11.44614983 -24.38448906 -6.001231194
12.75498962 -23.34231949 -6.091474056
12.67634964 -23.36849976 -6.088105202
12.14216042 -23.57814026 -6.073280811
12.05469036 -23.58577919 -6.065643787
11.97126007 -23.60092926 -6.06002903
11.88127041 -23.6027298 -6.051043987
11.73060036 -23.6638298 -6.048123837
11.65235043 -23.68833923 -6.045204163
11.58561039 -23.73624039 -6.048348904
11.53184032 -23.81114006 -6.058455944
11.42201996 -23.76999092 -6.038915157
11.34819984 -23.80315971 -6.038465977
11.33635998 -23.96735954 -6.071484089
12.74557018 -23.32910919 -6.244223118
12.67115021 -23.36297035 -6.242842197
12.60264015 -23.40773964 -6.244452
12.5307703 -23.44628906 -6.244452
12.44828987 -23.46484947 -6.239161015
12.36536026 -23.48226929 -6.233640194
12.28470039 -23.50370026 -6.229269028
12.18249989 -23.48340034 -6.21385622
12.09480953 -23.49039078 -6.205803871
12.01914024 -23.52045059 -6.203964233
11.93900013 -23.54158974 -6.199822903
11.87065983 -23.58592987 -6.201892853
11.78781033 -23.60133934 -6.196372032
11.71102047 -23.62867928 -6.19407177
11.63504028 -23.65751076 -6.192231178
11.56198025 -23.69222069 -6.192000866
11.49771976 -23.74509048 -6.196601868
11.40711975 -23.74341965 -6.186940193
11.33253956 -23.77478981 -6.186019897
11.3082304 -23.91237068 -6.212935925
12.72856998 -23.3020401 -6.403182983
12.65517044 -23.33756065 -6.402239799
12.58442974 -23.37799072 -6.402711868
12.50487041 -23.40192032 -6.398703098
12.43710995 -23.44790077 -6.400825024
12.36240005 -23.48078918 -6.399409771
12.29030037 -23.51860046 -6.399409771
12.18766022 -23.49753952 -6.383375168
12.09105015 -23.48730087 -6.370403767
12.02777958 -23.54158974 -6.375121117
11.93352032 -23.5350399 -6.363329887
11.85995007 -23.56893921 -6.362621784
11.77760029 -23.58522034 -6.357198238
11.70345974 -23.6177597 -6.356255054
11.62666035 -23.6448307 -6.353897095
11.49575996 -23.74546051 -6.361915112
11.40392017 -23.74119949 -6.351303101
11.35945988 -23.8357296 -6.367339134
11.27159977 -24.02992058 -6.400825024
12.73453999 -23.31699944 -6.564314842
12.65600967 -23.34316063 -6.560696125
12.57880974 -23.37162971 -6.55780077
12.50065041 -23.39812088 -6.554423809
12.42061996 -23.42093086 -6.550080776
12.33831024 -23.43918037 -6.544532776
12.24925995 -23.44424057 -6.535366058
12.16431999 -23.45672035 -6.52836895
12.08119965 -23.47236061 -6.522337914
12.0011797 -23.49375916 -6.517995834
11.92026997 -23.51316071 -6.513171196
11.8445797 -23.54268074 -6.511240959
11.7688303 -23.57196045 -6.509311199
11.69172001 -23.59839058 -6.506657124
11.61798 -23.6315403 -6.505933762
11.54500008 -23.66620064 -6.505692005
11.47148991 -23.69976044 -6.505209923
11.3970499 -23.73134041 -6.504244804
11.32419014 -23.76619911 -6.504244804
11.3337698 -23.97542 -6.552251816
11.27169991 -24.03467941 -6.559007168
12.82164955 -23.28457069 -6.740230083
12.74596977 -23.31613922 -6.738005161
12.66975021 -23.34662056 -6.735533237
12.60542011 -23.39903069 -6.739488125
12.52945995 -23.42989922 -6.737264156
12.45388985 -23.46138954 -6.735286236
12.3804903 -23.4969101 -6.734545231
12.26838017 -23.45836067 -6.712546825
12.19591045 -23.49502945 -6.71229887
12.08872032 -23.46429062 -6.692772865
11.98359013 -23.43655968 -6.674235821
11.90067005 -23.45161057 -6.668056011
11.84348011 -23.5174408 -6.676459789
11.77517986 -23.56146049 -6.678685188
11.69723988 -23.58618927 -6.675470829
11.47120953 -23.67540932 -6.670527935
11.39894009 -23.71136093 -6.670774937
11.35867977 -23.81443977 -6.69005394
11.26751041 -24.00123024 -6.723175049
12.73847008 -23.31612015 -6.90019989
12.65579987 -23.33466911 -6.894134045
12.58139992 -23.36828041 -6.892617226
12.50053024 -23.38969994 -6.887561798
12.42236996 -23.41597939 -6.884024143
12.3409996 -23.43600082 -6.878715992
12.26097012 -23.45832062 -6.874166965
12.17691994 -23.47263908 -6.867342949
12.09377956 -23.48838043 -6.861023903
12.01548958 -23.51330948 -6.857485771
11.93148994 -23.5267601 -6.850662231
11.85445976 -23.55374908 -6.84788084
11.77264023 -23.57097054 -6.842320919
11.69554043 -23.59744072 -6.839540958
11.61882019 -23.62453079 -6.837012768
11.54543972 -23.65831947 -6.836507797
11.46984959 -23.68753052 -6.834739208
11.39712048 -23.72261047 -6.834739208
11.31338978 -23.92329979 -6.8726511
11.29376984 -24.07263947 -6.905759811
12.65911961 -23.32542992 -7.055860996
12.57238007 -23.33609009 -7.047336102
12.49343967 -23.36091995 -7.043202877
12.41355991 -23.38377953 -7.038553238
12.33409977 -23.40723038 -7.034162045
12.25104046 -23.42355919 -7.027703762
12.17020988 -23.44388962 -7.022538185
12.09158993 -23.46822929 -7.01866293
12.01294041 -23.49231911 -7.014789104
11.93293953 -23.5135498 -7.010138988
11.85900974 -23.54660034 -7.009106159
11.78195953 -23.57336998 -7.00626421
11.70829964 -23.60680962 -7.005488873
11.63197994 -23.63482094 -7.003164768
11.55898952 -23.66951942 -7.002905846
11.48336983 -23.6987896 -7.001098156
11.41018963 -23.73303986 -7.000840187
12.74905014 -23.49518967 -7.272363186
12.55521965 -23.30830956 -7.202173233
12.47410011 -23.32885933 -7.196630955
12.42010975 -23.40024948 -7.206923008
12.22980976 -23.38711929 -7.179480076
12.1553297 -23.41939926 -7.177896023
12.08563042 -23.46087074 -7.179215908
12.00393963 -23.47893906 -7.173410892
11.92967033 -23.51136017 -7.172091007
11.85400963 -23.54095078 -7.169981003
11.77828026 -23.57031059 -7.167869091
11.69948006 -23.59337044 -7.163910866
11.62448978 -23.62396049 -7.162327766
11.55195999 -23.65950966 -7.162327766
11.47931957 -23.69483948 -7.162327766
11.45129013 -23.82296944 -7.190561771
12.10770988 -23.49109077 -7.353096962
11.98425961 -23.60614967 -7.366030216
11.70742989 -23.59639931 -7.328848839
11.6332798 -23.62874985 -7.327772141
11.57087994 -23.68510056 -7.334238052
11.46623993 -23.65461922 -7.313762188
14.97525978 30.45965958 -6.946360111
12.38160992 34.28527069 -7.682096004
12.47434044 34.21311951 -7.674427986
14.71984959 30.86749077 -7.404159069
14.50632954 30.18104935 -7.249320984
14.58139038 30.10034943 -7.240601063
14.66337967 30.03440094 -7.235496998
14.63685036 30.2365799 -7.493833065
31.28515053 -29.77523041 -5.655405045
24.24653053 -29.18083 -6.119725227
24.1543808 -29.25202942 -6.119082928
27.44281006 -27.94337082 -6.817675114
24.81472969 -26.87104034 -6.805925846
24.20358086 -27.02956963 -6.750925064
24.12380981 -27.10737038 -6.751843929
40.55899048 -8.861856461 -4.135340214
40.62308121 -8.59230423 -4.406866074
40.58972931 -8.715432167 -4.406120777
40.62865829 -8.741271973 -4.660277843
39.83623123 -9.333820343 -5.595417976
39.79005051 -9.451870918 -5.592963219
39.90341187 -9.608223915 -5.613151073
39.84381104 -9.338226318 -5.851418972
39.79956055 -9.456760406 -5.849140167
39.78384018 -9.582063675 -5.851133823
39.94377899 -9.235102654 -6.11783123
39.92681885 -9.360313416 -6.119613171
39.92581177 -9.489394188 -6.12391901
39.88401031 -9.608828545 -6.121988773
40.01808929 -9.229669571 -6.392530918
39.98862076 -9.352174759 -6.392375946
39.96070099 -9.475042343 -6.392530918
