# .PCD v0.7 - Point Cloud Data file format
VERSION 0.7
FIELDS x y z
SIZE 4 4 4
TYPE F F F
COUNT 1 1 1
WIDTH 65
HEIGHT 1
VIEWPOINT 0 0 0 1 0 0 0
POINTS 65
DATA ascii
11.27810955 26.98926926 -8.324770927
14.95977974 30.87627029 -6.803927898
14.89463043 30.53186035 -6.952406883
14.96835041 30.44558907 -6.943133831
14.91238976 31.79143906 -7.398814201
14.94503975 31.60845947 -7.36669302
14.57841015 30.0941906 -7.2391119
14.65995026 30.02737045 -7.233795166
24.31373978 -32.37007904 -6.532785892
24.23320961 -32.46982956 -6.537913799
24.1328907 -32.54322815 -6.537754059
23.9193306 -32.88787842 -6.817442894
24.06962013 -33.52505112 -6.919355869
31.3050499 -29.61166 -5.642466068
31.24278069 -29.73490906 -5.647694111
31.18219948 -29.86009979 -5.653314114
27.14859962 -26.01309013 -6.300397873
21.4980793 8.443915367 -6.848993778
21.60475922 7.96034193 -6.967603207
21.62998009 7.894350052 -6.967895031
21.66938972 7.833480835 -6.972845078
21.83517075 7.742249012 -7.010993004
21.72071075 7.626738071 -6.966437817
21.46067047 8.205843925 -7.101937771
21.47146034 8.134552002 -7.097187996
21.49632072 8.068639755 -7.097187996
21.54899979 7.93791008 -7.098375797
21.57863998 7.873723984 -7.100156784
21.63412094 7.818844795 -7.110548019
21.66880035 7.756297112 -7.114109993
21.68438911 7.686910152 -7.111437798
21.7204895 7.624774933 -7.11559391
21.35633087 8.5504179 -7.251819134
21.4356308 8.505953789 -7.269950867
21.44211006 8.43247509 -7.263301849
21.45722008 8.36249733 -7.25967598
21.48455048 8.297315598 -7.260281086
21.4636097 8.213645935 -7.244565964
21.47711945 8.143363953 -7.240636826
21.44935989 8.057656288 -7.222806931
21.4793396 7.993806839 -7.224619865
21.4965992 7.925233841 -7.222202778
21.59771919 7.812314987 -7.24003315
21.78199005 7.578013897 -7.270253181
21.42130089 8.342288971 -7.383776188
21.42992973 8.270019531 -7.377935886
21.42853928 8.194037437 -7.368714809
21.44466972 8.124884605 -7.365642071
21.49889946 8.070092201 -7.37578392
23.93231964 20.89653015 -7.669775963
40.68856812 -8.872638702 -3.906243086
40.72034836 -8.897107124 -4.151943207
40.73749161 -8.74716568 -4.422298908
40.8121109 -8.771155357 -5.205728054
39.84780121 -9.336531639 -5.597054958
39.78813171 -9.451412201 -5.592689991
39.88383865 -9.218618393 -5.85312891
39.83031082 -9.335064888 -5.849424839
39.77452087 -9.450811386 -5.845436096
39.95534897 -9.237775803 -6.119613171
39.91334152 -9.357153893 -6.117534161
39.88348007 -9.479333878 -6.117384911
40.0200119 -9.230113983 -6.392839909
40.00400925 -9.355774879 -6.394851208
40.02415085 -9.490088463 -6.402740955
