# .PCD v0.7 - Point Cloud Data file format
VERSION 0.7
FIELDS x y z
SIZE 4 4 4
TYPE F F F
COUNT 1 1 1
WIDTH 411
HEIGHT 1
VIEWPOINT 0 0 0 1 0 0 0
POINTS 411
DATA ascii
14.93420982 30.37615013 -6.927207947
12.3743 34.26502991 -7.677536011
12.47735977 34.22138977 -7.676292896
24.4535408 -38.10192108 -6.195610046
24.46220016 -38.373909 -6.2278018
24.3719101 -38.49230957 -6.234895229
25.44881058 -35.44599152 -6.24174881
25.29338074 -35.45862961 -6.230209827
24.49991035 -35.95516968 -6.223515034
24.3819294 -36.74300003 -6.308134079
24.32411003 -36.90110016 -6.322522163
24.28236008 -37.08485031 -6.341326237
24.38002014 -37.48442841 -6.397169113
25.44948006 -35.22291946 -6.486853123
25.28017044 -35.21567917 -6.471111774
25.15822983 -35.27375031 -6.467547894
25.03616905 -35.33140945 -6.463984013
24.8906498 -35.35549164 -6.454330921
24.78149986 -35.43087006 -6.454183102
24.65011024 -35.47425079 -6.448243141
24.42190933 -35.61016083 -6.445569992
24.28997993 -35.88790894 -6.468883991
24.25448036 -37.04722977 -6.610849857
25.47595024 -34.9933815 -6.739545822
24.9520092 -35.17282867 -6.714482784
24.70624924 -35.28319168 -6.706438065
24.58152962 -35.33530045 -6.701951981
24.4713192 -35.40811157 -6.701488018
31.34476089 -29.83196068 -5.66625309
30.94886017 -27.88458061 -5.957121849
24.79805946 -26.8529892 -6.801327229
24.19964027 -27.02518082 -6.749821186
24.0872097 -27.06624985 -6.741542816
28.27232933 6.25408411 -4.128982067
28.2778492 6.164363861 -4.12698698
28.29759026 6.077787876 -4.127130032
28.33353996 5.994631767 -4.129693985
28.34501076 5.906263828 -4.128695965
28.37075043 5.820867062 -4.129836082
28.3467598 5.725371838 -4.123711109
28.34865952 5.6352911 -4.121430874
28.35124016 5.545441151 -4.11929512
28.37881088 5.460492134 -4.120862007
28.43531036 5.380948067 -4.126701832
28.42540932 5.288794994 -4.12285614
28.46096992 5.205123901 -4.125704765
28.46608925 5.115857124 -4.124137878
28.47287941 5.026950836 -4.12285614
28.2444706 6.245833874 -4.305242062
28.25672913 6.157678127 -4.30420208
28.28805923 6.07365799 -4.306132793
28.24366951 5.973538876 -4.296480179
28.00822067 5.834015846 -4.257573128
27.98723984 5.740110874 -4.251633167
27.93976974 5.641105175 -4.241683006
27.94045067 5.552083015 -4.239159107
27.93309021 5.461592197 -4.235445976
27.94486046 5.37493515 -4.234704018
27.92332077 5.282005787 -4.22891283
27.96759033 5.201558113 -4.233219147
27.97271919 5.113773823 -4.231585979
27.96199989 5.023209095 -4.227575779
28.23402977 6.2601161 -4.490056992
28.2241497 6.167140007 -4.485415936
28.24776077 6.081560135 -4.486188889
28.09038925 5.957570076 -4.458032131
27.91511917 5.830967903 -4.427090168
27.8003006 5.718036175 -4.405895233
27.80125046 5.629385948 -4.403264999
27.75444031 5.531324863 -4.393054008
27.76922989 5.26901722 -4.387484074
27.7881794 5.18434 -4.387948036
27.79424095 5.097280979 -4.386401176
27.81752014 5.013387203 -4.387639046
27.80651093 4.923370838 -4.383460999
27.83704948 4.840745926 -4.385937214
27.85275078 4.755486965 -4.386092186
27.87207985 4.670829773 -4.386865139
27.86873055 4.582413197 -4.384079933
27.88265991 4.496891022 -4.384079933
27.90998077 4.413486958 -4.386246204
27.91949081 4.327235222 -4.385628223
27.94631004 4.243635178 -4.387794018
27.98851013 4.162234783 -4.392435074
28.24530029 6.250191212 -4.657022953
28.27783966 6.166450024 -4.659266949
28.28022003 6.076140881 -4.656542778
28.26300049 5.981788158 -4.650615215
27.78742981 5.792129993 -4.568738937
27.66197014 5.677483082 -4.545025826
27.62780952 4.967223167 -4.51778698
27.63805962 4.881579876 -4.516985893
27.64804077 4.795921803 -4.516184807
27.66651917 4.711739063 -4.516826153
27.67499924 4.625861168 -4.515864849
27.69685936 4.542211056 -4.517147064
27.71651077 4.458158016 -4.518107891
27.75638008 4.377254009 -4.522434235
27.77845955 4.29343605 -4.52387619
27.80907059 4.210852146 -4.526760101
27.8540802 4.130291939 -4.532048225
28.24032974 6.247004032 -4.837543011
28.29114914 6.167265892 -4.843029022
28.31090927 6.080647945 -4.843194962
28.29084015 5.985598087 -4.836544991
27.47739029 5.374505997 -4.681598186
27.47245026 5.286080837 -4.677940845
27.46141052 5.196638107 -4.673285007
27.45491982 5.108213902 -4.669462204
27.4549408 5.021121025 -4.666801929
27.46633911 4.936169147 -4.666137218
27.47649956 4.851023197 -4.665306091
27.49319077 4.767041206 -4.66563797
27.51351929 4.683662891 -4.66663599
27.53457069 4.600368023 -4.667798996
27.55828094 4.517467022 -4.669462204
27.58856964 4.435558796 -4.672287941
27.61665916 4.353200912 -4.674781799
27.63377953 4.269055843 -4.675446987
27.68379974 4.189865112 -4.681765079
27.78430939 4.117925167 -4.696726799
28.25136948 6.257699966 -5.026834965
28.30701065 6.178980827 -5.033388138
28.31524086 6.089828014 -5.031490803
28.36269951 6.009056091 -5.036664009
27.40545082 5.455688953 -4.853011131
27.34955978 5.357379913 -4.840076923
27.32525063 5.265617847 -4.832835197
27.32966042 5.179559231 -4.830764771
27.32315063 5.091536999 -4.826798916
27.32991982 5.006089211 -4.825246811
27.32963943 4.919425964 -4.822487831
27.35042953 4.836585999 -4.823523045
27.35931015 4.751642227 -4.822487831
27.38637924 4.669835091 -4.824729919
27.40057945 4.585793018 -4.824729919
27.43395996 4.504899979 -4.828177929
27.45252037 4.421495914 -4.829041004
27.46692085 4.337406158 -4.829213142
27.48885918 4.254475117 -4.830764771
27.58651924 4.182971001 -4.845767975
28.30015945 6.264416218 -5.207569122
28.32885933 6.179659843 -5.209350109
28.35153008 6.093545914 -5.210062981
28.34217072 6.000627041 -5.204896927
27.27095985 5.686513901 -5.003448009
27.23140907 5.591145992 -4.992939949
27.23685074 5.505237103 -4.990801811
27.22369957 5.415699005 -4.985280991
27.25595093 5.161797047 -4.982253075
27.2523098 5.074551105 -4.978691101
27.23871994 4.985603809 -4.973347187
27.25000954 4.90131712 -4.972634792
27.28248024 4.734527111 -4.97316885
27.30463982 4.652124882 -4.974594116
27.32752037 4.569794178 -4.976196766
27.35209084 4.487685204 -4.97815609
27.39002037 4.407656193 -4.982608795
27.38883018 4.321303844 -4.97993803
27.40584946 4.237856865 -4.980649948
27.43824959 3.898735046 -4.977444172
28.31856918 6.271584034 -5.388948917
28.34247017 6.185721874 -5.389869213
27.07980919 5.736320972 -5.141167164
27.0972805 5.653213978 -5.141167164
27.27440071 4.649860859 -5.138774872
27.52836037 4.173263073 -5.171517849
27.46519089 4.077528954 -5.157169819
28.30253983 6.260766983 -5.558476925
28.34560013 6.179134846 -5.563217163
28.35577965 6.090287209 -5.56151104
28.35993004 6.000216007 -5.558666229
28.33791924 6.175374031 -5.745515823
28.35577011 6.088199139 -5.745319843
28.36952019 6.000161171 -5.74434185
28.35791969 6.191181183 -5.934576035
28.36720085 6.102091789 -5.932559013
28.39057922 6.016048908 -5.933568001
28.37306976 6.192399025 -6.112131119
28.39767075 6.106555939 -6.113374233
28.41340065 6.018795967 -6.112751961
26.87264061 5.606350899 -5.775382996
26.92089081 5.186823845 -5.767922878
26.88669014 5.094737053 -5.757146835
27.01761055 5.033726215 -5.782014847
26.95498085 4.936540127 -5.765229225
26.97192001 4.854166985 -5.765644073
27.00987053 4.690084934 -5.767508984
27.03474045 4.609005928 -5.769787788
27.08181 4.360922813 -5.771031857
27.12018967 4.281783104 -5.776420116
27.22915077 3.701575994 -5.781394005
26.86381912 5.597608089 -5.933413029
26.8521595 5.509273052 -5.927031994
26.88616943 5.430346966 -5.930860043
26.8990593 5.004784107 -5.915972233
26.92733955 4.839293957 -5.91554594
26.97097015 4.676485062 -5.918736935
27.03601074 4.431846142 -5.923841
27.11820984 4.019193172 -5.927670002
27.19162941 3.689656019 -5.933413029
26.83835983 5.600059032 -6.108674049
26.82769966 5.511998177 -6.10232687
26.80430984 5.42153883 -6.093136787
26.80550957 5.336229801 -6.089635849
26.79781914 5.249277115 -6.084165096
26.80421066 5.165191174 -6.081976891
26.82184982 5.083295822 -6.082415104
26.83636093 5.000804901 -6.082196236
26.85541916 4.919151783 -6.083071232
26.8684597 4.836390972 -6.082633018
26.8985405 4.756657124 -6.086133957
26.90243912 4.672274113 -6.083726883
26.93107033 4.592176914 -6.087009907
26.94985008 4.51033783 -6.088103771
26.98184967 4.430640221 -6.092261791
26.98760986 4.346599102 -6.090510845
27.02684021 4.267891884 -6.096418858
27.05042076 4.18659687 -6.098825932
27.05155945 4.101831913 -6.096199989
27.08428001 4.021830082 -6.100796223
27.16736984 3.694026947 -6.108891964
26.80294037 5.588943005 -6.271162987
26.85240936 5.513349056 -6.278800011
26.86185074 5.343729019 -6.273183823
26.81212997 5.248380184 -6.257686138
26.79365921 5.159464836 -6.249599934
26.80360985 5.076150894 -6.248251915
26.81139946 4.99246788 -6.246456146
26.84480095 4.913520813 -6.250722885
26.93647003 4.844935894 -6.268692017
26.98760986 4.598124027 -6.270489216
27.01024055 4.516750813 -6.272511005
27.02877998 4.434651852 -6.273633003
27.04803085 4.352636814 -6.274981022
27.03911018 4.266141891 -6.269814968
27.03858948 4.181083202 -6.266671181
27.03009987 4.094900131 -6.261728764
27.06277084 4.014955997 -6.266446114
27.23999023 3.615124941 -6.294073105
26.80277061 5.586896896 -6.432172775
26.79880905 5.500337124 -6.427112103
26.84177971 5.081377983 -6.417910099
26.90405083 4.922362804 -6.425501823
26.91231918 4.83859396 -6.423891068
26.95684052 4.67603302 -6.427571774
26.9739399 4.593799114 -6.428262234
26.99365997 4.511984825 -6.429643154
27.00737953 4.429148197 -6.429643154
27.03885078 4.264109135 -6.430792809
27.20904922 3.694010973 -6.45103693
27.22024918 3.610517025 -6.45103693
26.75942039 5.575850964 -6.593019009
26.76211929 5.490797997 -6.589481831
26.77598 5.408090115 -6.588774204
26.79911995 5.327242851 -6.590425014
26.81248093 5.244440079 -6.589716911
26.83320999 5.163074017 -6.590897083
26.84700966 5.080365181 -6.590425014
26.87107086 4.999576092 -6.59254694
26.88628006 4.917112827 -6.59254694
26.90793991 4.835806847 -6.594198227
26.92073059 4.752893925 -6.593727112
26.95338058 4.673435211 -6.598206997
26.97047043 4.591209888 -6.5989151
26.98730087 4.508924961 -6.599621773
26.99716949 4.425478935 -6.598679066
27.0202198 4.344174862 -6.601037025
26.86348915 5.16689682 -6.760204792
26.91819 4.835649967 -6.758515835
26.93671989 4.753717899 -6.759480953
26.95022011 4.670888901 -6.75924015
26.94145966 4.584277153 -6.753449917
26.93433952 4.498083115 -6.748143196
26.93268967 4.412917137 -6.744283199
27.0323391 4.344130039 -6.765995026
26.97364044 4.249844074 -6.747901917
27.04047012 4.090499878 -6.758275986
26.8854599 5.439106941 -6.956748962
26.8678093 5.349788189 -6.947851181
26.90026093 5.270500183 -6.95205307
27.04107094 4.954310894 -6.972321033
26.84729004 4.833734035 -6.918190002
26.91924095 4.761468887 -6.933021069
26.93371964 4.678859234 -6.933021069
26.92502975 4.592297077 -6.927089214
26.93898964 4.509669781 -6.927089214
26.96417046 4.428884983 -6.930055141
26.98911095 4.347989082 -6.933021069
26.98031044 4.261691093 -6.927336216
27.03922081 4.186009884 -6.939199924
27.13433075 4.115528107 -6.960455894
27.15162086 4.032972813 -6.961691856
20.44898033 -0.3736121058 -6.56467104
20.3792305 -0.4348891079 -6.542541027
20.36352921 -0.4970620871 -6.537930012
20.46179008 -0.5622732043 -6.570202827
18.62553978 7.449500084 -6.806963921
18.61838913 7.380465031 -6.795979023
18.63213921 7.319849014 -6.792747974
19.03362083 6.877274036 -6.867705822
19.05462074 6.818847179 -6.867705822
19.11827087 6.775530815 -6.883213997
19.19253922 6.735650063 -6.902599812
19.20239067 6.673007965 -6.898723125
20.29174042 -0.6841167212 -6.889998913
18.7290802 -2.250847101 -6.398577213
18.56915092 7.631720066 -6.937850952
18.6213398 7.586476803 -6.948687077
18.60703087 7.447853088 -6.926030159
18.57887077 7.370526791 -6.906983852
18.57942009 7.304852009 -6.898775101
18.63607025 7.261191845 -6.911581039
18.65296936 7.201941967 -6.909611225
18.66175079 7.13961792 -6.90468502
18.86211014 7.017960072 -6.954926014
18.91013908 6.969860077 -6.964776993
18.97934914 6.929306984 -6.98251009
19.02182961 6.878757 -6.990389824
19.06151962 6.827055931 -6.997285843
19.10640907 6.777070999 -7.006152153
19.17523956 6.735326767 -7.02388382
19.19046021 6.674603939 -7.021914005
20.25489044 -0.6152572036 -7.003197193
20.25289917 -0.6773955226 -7.003197193
18.78767014 6.988077164 -7.056612968
18.83024979 6.938223839 -7.064623833
18.88332939 6.892055035 -7.076641083
18.94692993 6.849469185 -7.092663765
18.78228951 -4.334718227 -6.784225941
18.94836998 6.916010857 -7.347578049
19.05723953 6.757640839 -7.365465164
19.02827072 6.68171978 -7.346201897
19.14711952 6.657543182 -7.384385109
19.56985092 -1.439229965 -7.146688938
19.45768929 -1.551076055 -7.108850002
19.39728928 -1.666097999 -7.090274811
18.62553978 -4.178211212 -6.950961113
18.65212059 -4.364861965 -6.975728035
18.5242691 7.348858833 -7.377297878
18.49962997 7.273472786 -7.358457088
18.52709007 7.218723774 -7.36055088
18.55964088 7.165901184 -7.364737988
18.58153915 7.108926773 -7.364737988
19.43033981 -1.607120037 -7.216454983
19.39076996 -1.663761973 -7.203546047
19.35757065 -1.720756054 -7.193078995
19.33260918 -1.778334975 -7.185751915
19.25481033 -1.950057983 -7.163074017
18.6216507 -2.814791918 -6.969435215
18.60218048 -2.928708076 -6.968737125
18.53870964 -4.156982899 -7.031189919
18.50851059 -4.209890842 -7.024560928
18.61787033 -4.294875145 -7.071312904
18.57266998 -4.344504833 -7.059102058
18.65253067 -2.700980902 -7.094605923
18.64044952 -2.757646084 -7.093190193
18.54038048 -2.917457104 -7.064859867
18.55125999 -4.21807909 -7.161890984
27.16460991 28.17686081 -5.594571114
27.26954079 28.11256981 -5.598416805
27.38746071 28.06135941 -5.604969978
27.49213982 27.99626923 -5.608816147
27.59460068 27.92868996 -5.612235069
27.70388031 27.86776924 -5.617078781
27.47476006 27.97501945 -5.849492073
27.58061028 27.9109993 -5.853797913
27.6863308 27.84659004 -5.858104229
27.79121971 27.78108978 -5.862261772
27.24327087 28.1122303 -6.091619015
27.45813942 27.98826027 -6.101211071
27.56331062 27.92358017 -6.105543137
27.6530304 27.84309006 -6.106471062
27.75717926 27.77699089 -6.110648155
25.76158905 25.0010891 -5.582931042
27.20314026 28.0476799 -6.303664207
27.32077026 27.99658012 -6.311034203
27.43420029 27.94079971 -6.317442894
27.53366089 27.87055016 -6.320648193
27.63157082 27.79854965 -6.323532104
27.74604034 27.74295998 -6.33026123
27.08177948 28.09094048 -6.539802074
27.18224907 28.02257919 -6.543292999
27.29496002 27.96657944 -6.549777031
27.41378975 27.91647911 -6.557756901
27.50346947 27.83645058 -6.558754921
27.63462067 27.79809952 -6.569726944
27.16136932 28.01704979 -6.792498112
27.27815056 27.96532059 -6.80025816
27.38657951 27.90469933 -6.805949211
27.50112915 27.84999084 -6.813190937
27.62741089 27.80670929 -6.823366165
27.72999954 27.73924065 -6.827676773
26.5069809 32.49795151 -6.768639088
26.5003109 32.48564911 -7.029416084
40.62646103 -8.74079895 -3.634658098
40.60269928 -8.723508835 -3.89530611
40.59032822 -8.85121727 -3.896720886
40.57648087 -8.865677834 -4.137139797
40.74176025 -8.61741066 -4.419850826
40.7539711 -8.768235207 -4.674768925
39.89891815 -9.348509789 -5.604284763
39.873909 -9.471790314 -5.604829788
39.89102936 -9.349292755 -5.858398914
39.85926819 -9.470946312 -5.857972145
40.02954102 -9.254926682 -6.131046772
39.99132919 -9.375434875 -6.129561901
39.95275116 -9.495796204 -6.12807703
40.04888916 -9.236775398 -6.397480965
40.02613831 -9.36095047 -6.398409843
40.02030182 -9.489175797 -6.402122974
