# .PCD v0.7 - Point Cloud Data file format
VERSION 0.7
FIELDS x y z
SIZE 4 4 4
TYPE F F F
COUNT 1 1 1
WIDTH 316
HEIGHT 1
VIEWPOINT 0 0 0 1 0 0 0
POINTS 316
DATA ascii
9.813345909 -17.31446075 -6.01711607
9.734848022 -17.29945946 -6.001390934
9.665865898 -17.30084991 -5.991489887
9.573303223 -17.25930977 -5.966738224
9.677304268 -17.07769966 -6.06139183
9.625333786 -17.10814095 -6.061687946
9.568144798 -17.12925911 -6.058720112
9.214683533 -16.98266983 -5.965797901
9.134010315 -16.95789909 -5.947094917
9.07698822 -16.97657967 -5.94382906
9.011432648 -16.97904015 -5.934923172
9.53772831 -16.94190979 -6.122484207
9.447104454 -16.90203094 -6.097401142
9.34987545 -16.84925079 -6.067784786
9.26777935 -16.82275009 -6.047840118
9.14934063 -16.72900009 -6.003717899
9.094334602 -16.75028992 -6.001300812
9.025263786 -16.74538994 -5.989514828
9.588417053 -16.92053986 -6.240408897
9.502861023 -16.89016914 -6.218278885
9.392056465 -16.81373978 -6.179244995
9.301656723 -16.77256966 -6.153427124
9.159730911 -16.63681984 -6.092877865
9.043830872 -16.54627037 -6.04923296
8.805898666 -16.46936989 -5.990836143
8.744175911 -16.47529984 -5.983150959
8.678507805 -16.47341919 -5.972702026
8.611168861 -16.46792984 -5.9610219
8.546575546 -16.46723938 -5.951187134
9.631260872 -16.98624039 -6.393799782
9.475680351 -16.83197021 -6.324314117
9.271773338 -16.70874977 -6.256081104
9.0953722 -16.51000977 -6.170631886
8.975414276 -16.41116905 -6.123055935
8.860228539 -16.31926918 -6.078298092
8.775877953 -16.28282928 -6.054510117
8.70079422 -16.26277924 -6.036982059
8.620126724 -16.2315197 -6.015385151
8.559659958 -16.23772049 -6.007873058
7.998765945 -16.37232018 -5.963739872
7.957198143 -16.41473007 -5.970313072
7.910916805 -16.44762993 -5.973443031
7.870234966 -16.49238968 -5.980955124
7.45466423 -16.79974937 -6.015697956
7.411119938 -16.84079933 -6.022271156
7.355619907 -16.85474968 -6.019141197
9.61699295 -16.97126961 -6.508080006
9.335623741 -16.71297073 -6.386171818
9.201551437 -16.59230995 -6.328877926
9.037219048 -16.41449928 -6.249939919
8.930895805 -16.3398304 -6.210790157
8.851790428 -16.31382942 -6.190419197
8.692461967 -16.13809013 -6.113071918
8.590614319 -16.06686974 -6.075830936
8.529726982 -16.07138062 -6.067555904
7.995182991 -16.12409019 -6.001349926
7.947769165 -16.15279007 -6.002942085
7.886530876 -16.15324974 -5.994029045
7.83569622 -16.17481041 -5.99307394
7.777000904 -16.17996979 -5.986072063
7.712635994 -16.17295074 -5.97461319
7.668656826 -16.20853996 -5.979069233
7.612450123 -16.21825981 -5.973976135
7.573060989 -16.26387978 -5.982252121
7.530681133 -16.3033905 -5.988299847
7.487339973 -16.34107018 -5.993710995
7.451683044 -16.39588928 -6.005487919
7.400957108 -16.41781044 -6.005168915
7.314682007 -16.49584961 -6.017264843
7.233032227 -16.5855999 -6.033815861
9.625718117 -16.98996925 -6.625063896
9.464047432 -16.82476044 -6.54881382
9.273026466 -16.60419083 -6.451241016
9.162381172 -16.5249691 -6.409238815
9.055049896 -16.45019913 -6.369174957
8.937825203 -16.3558197 -6.321681023
8.843379021 -16.30164909 -6.290018082
8.685629845 -16.12873077 -6.212475777
8.588367462 -16.06599998 -6.177905083
8.458743095 -15.94095993 -6.11942482
8.403622627 -15.95512009 -6.11490202
8.275270462 -15.82903004 -6.056423187
8.198335648 -15.79973984 -6.035420895
8.128591537 -15.78359032 -6.019589901
8.081852913 -15.81182957 -6.020883083
8.031164169 -15.83232975 -6.019267082
7.982128143 -15.85604954 -6.018943787
7.933867931 -15.88131046 -6.019267082
7.885528088 -15.90641975 -6.019589901
7.845046043 -15.94752026 -6.026051998
7.800649166 -15.98087025 -6.029605865
7.759833813 -16.02176094 -6.036067009
7.71802187 -16.06085014 -6.041882992
7.678486824 -16.10494995 -6.049637794
7.637539864 -16.14640045 -6.056423187
7.596813202 -16.18860054 -6.063529968
7.555899143 -16.23070908 -6.070639133
7.515987873 -16.27528954 -6.078715801
7.475873947 -16.31978035 -6.086792946
7.433600903 -16.35987091 -6.093255043
7.395040989 -16.40848923 -6.102948189
7.348141193 -16.43886948 -6.105854988
7.317234993 -16.50546074 -6.12233305
7.279893875 -16.55814934 -6.133640766
7.223008156 -16.56653023 -6.128471851
7.178157806 -16.60251045 -6.133640766
7.133154869 -16.63837051 -6.138811111
7.089480877 -16.67760086 -6.145273209
9.695531845 -16.98096085 -6.756260872
9.55766964 -16.85943031 -6.695840836
9.403037071 -16.70594978 -6.622941971
9.300127983 -16.64237976 -6.586163998
9.001407623 -16.34255028 -6.444635868
8.896842003 -16.27065086 -6.405230999
8.781986237 -16.17832947 -6.357945919
8.570269585 -16.02202988 -6.275196075
8.467913628 -15.94814014 -6.235791206
8.379304886 -15.89883995 -6.206237793
8.221456528 -15.71607971 -6.124473095
8.166235924 -15.7278204 -6.119218826
8.117079735 -15.75111961 -6.118563175
8.070008278 -15.77847004 -6.11954689
8.021562576 -15.80315971 -6.11954689
7.978141785 -15.83782005 -6.123487949
7.955280781 -15.91374969 -6.143518925
7.915235996 -15.95584965 -6.15041399
7.822159767 -16.01429939 -6.154355049
7.777523994 -16.04758072 -6.157967091
7.639195919 -16.13896942 -6.165847778
7.599284172 -16.18284988 -6.173728943
7.564757824 -16.23862076 -6.186206818
7.516489029 -16.26518059 -6.187520981
7.4728508 -16.30190086 -6.192774773
7.435315132 -16.35227013 -6.203281879
7.394043922 -16.39480019 -6.21083498
7.347953796 -16.42690086 -6.214447021
7.307483196 -16.47180939 -6.222984791
7.265664101 -16.51403999 -6.230536938
7.219876766 -16.54750061 -6.234806061
7.172451973 -16.57737923 -6.237761021
7.131616116 -16.62273979 -6.246627808
7.082434177 -16.64888954 -6.248270035
9.665419579 -16.9321003 -6.862337112
9.609708786 -16.95512009 -6.859666824
8.991277695 -16.3277607 -6.558907032
8.843485832 -16.17661095 -6.486804008
8.748856544 -16.12080956 -6.453423977
8.627832413 -16.01478958 -6.400014877
8.563547134 -16.01292038 -6.388665199
8.454276085 -15.92588043 -6.343266964
8.327168465 -15.8032999 -6.283850193
8.202201843 -15.68258953 -6.225433826
8.150141716 -15.70014954 -6.222430229
8.10625267 -15.73346043 -6.225768089
8.034727097 -15.83250046 -6.245461941
7.989507198 -15.86380959 -6.248133183
7.942485809 -15.89161968 -6.24946785
7.892017841 -15.91252995 -6.248133183
7.844827175 -15.94005966 -6.24946785
7.755915165 -16.00654984 -6.256812096
7.713713169 -16.0447197 -6.262485981
7.67297411 -16.0861702 -6.269495964
7.630843163 -16.12498093 -6.275505066
7.58774519 -16.1619606 -6.280846119
7.546482086 -16.20310974 -6.287856102
7.50582695 -16.24587059 -6.29553318
7.463410854 -16.28510094 -6.301876068
7.421995163 -16.32679939 -6.309218884
7.379230976 -16.36582947 -6.315561771
7.337067127 -16.40645981 -6.322572231
7.294341087 -16.44613075 -6.329247952
7.252199173 -16.48740959 -6.336592197
7.209118843 -16.52685928 -6.343266964
7.162123203 -16.55755043 -6.346605778
7.148444176 -16.66608047 -6.379985809
7.070721149 -16.62548065 -6.355951786
9.653312683 -16.91416931 -6.973399162
9.536440849 -16.82910919 -6.925951958
8.937173843 -16.23278046 -6.633141041
8.820550919 -16.13793945 -6.582983017
8.735106468 -16.09877014 -6.55587101
8.634814262 -16.03105927 -6.517236233
8.511068344 -15.91808987 -6.460299969
8.418528557 -15.86186028 -6.426749229
8.237401009 -15.63623047 -6.324400902
8.187211037 -15.65725994 -6.322706223
8.139570236 -15.6831398 -6.323044777
8.112095833 -15.74818039 -6.33931303
8.020848274 -15.80856991 -6.343719006
7.974849224 -15.83813953 -6.345751762
7.930846214 -15.87178993 -6.349480152
7.893398762 -15.91880989 -6.35863018
7.844522953 -15.94295025 -6.35863018
7.798875809 -15.97369957 -6.361341
7.75475502 -16.00772095 -6.365407944
7.710497856 -16.04161072 -6.369474888
7.668941021 -16.08131981 -6.375914097
7.620372772 -16.10647964 -6.376592159
7.576919079 -16.14254951 -6.381674767
7.534110069 -16.18021965 -6.387436867
7.496664047 -16.22974014 -6.39794302
7.455066204 -16.27062035 -6.405059814
7.408616066 -16.30113029 -6.408110142
7.384473801 -16.38125038 -6.430816174
7.146212101 -16.66485023 -6.489785194
7.143641949 -16.80097961 -6.534520149
9.508140564 -16.77561951 -7.022165775
9.047714233 -16.31146049 -6.791349888
8.819086075 -16.13186073 -6.693314075
8.615275383 -15.99141026 -6.612476826
8.461667061 -15.82236004 -6.531295776
8.380943298 -15.7876997 -6.506185055
8.300513268 -15.75269985 -6.481072903
8.179472923 -15.75667 -6.461810112
8.107439041 -15.73577976 -6.442891121
8.043733597 -15.73048019 -6.430507183
7.61967802 -16.10136986 -6.483825207
7.580618858 -16.14677048 -6.492768764
7.534614086 -16.1776104 -6.495864868
7.489672184 -16.21088028 -6.499992847
7.451640129 -16.25938988 -6.510313034
7.335028172 -16.40185928 -6.540238857
7.284292221 -16.42342949 -6.539896011
7.252398014 -16.48781013 -6.556750774
7.216422081 -16.54355049 -6.570166111
7.166378021 -16.56734085 -6.570854187
7.130692959 -16.62462044 -6.584958076
7.09068203 -16.67234039 -6.595276833
8.486484528 -15.86542034 -6.656472206
8.364806175 -15.75397968 -6.598555088
8.238006592 -15.74771976 -6.57448101
8.165036201 -15.72550964 -6.55459404
8.107735634 -15.73299026 -6.547266006
8.057295799 -15.75362015 -6.545522213
8.016986847 -15.79413986 -6.552151203
7.967649937 -15.8169899 -6.551454067
7.916991234 -15.83716965 -6.549708843
7.832499027 -15.91151047 -6.56052494
7.784469128 -15.93715 -6.56122303
7.736355782 -15.9626503 -6.56192112
7.691001892 -15.99390984 -6.565061092
7.663288116 -16.06225967 -6.583551884
7.619186878 -16.09670067 -6.588088036
7.573352814 -16.12763977 -6.591228008
7.529775143 -16.16353989 -6.596460819
7.486048222 -16.19931984 -6.601695061
7.44646883 -16.24435997 -6.610765934
7.401640892 -16.27821922 -6.615302086
7.36669302 -16.33416939 -6.628909111
7.33185482 -16.39090919 -6.642865181
7.295978069 -16.44588089 -6.656123161
7.253415108 -16.48620033 -6.663449764
7.211798191 -16.52898979 -6.671823978
7.16663599 -16.56394005 -6.677056789
7.125023842 -16.60737991 -6.685780048
7.097888947 -16.68520927 -6.708457947
7.065242767 -16.75094986 -6.726252079
8.352611542 -15.72772026 -6.701169968
8.214333534 -15.69911957 -6.667173862
8.151478767 -15.69602966 -6.655134201
8.103713989 -15.72179985 -6.655488014
8.054164886 -15.74409008 -6.654426098
8.007941246 -15.77289009 -6.656196117
7.957829952 -15.79405022 -6.654779911
7.911427975 -15.82256985 -6.656549931
7.868667126 -15.85848999 -6.661508083
7.825758934 -15.89431 -6.666466236
7.785169125 -15.93505001 -6.673549175
7.73706007 -15.96053982 -6.674256802
7.695353031 -15.99936962 -6.680631161
7.649855137 -16.03050041 -6.683817863
7.604640007 -16.06234932 -6.687358856
7.562480927 -16.10083961 -6.693734169
7.517393112 -16.13328934 -6.697628975
7.474137783 -16.16986084 -6.703295231
7.435407162 -16.21652031 -6.71321106
7.395685196 -16.26139069 -6.722417831
7.354219913 -16.30275917 -6.730208874
7.322117805 -16.3653698 -6.746852875
7.287804127 -16.42366028 -6.761725903
7.246798992 -16.46734047 -6.770578861
7.205966949 -16.51177979 -6.779787064
7.164931774 -16.55611992 -6.788993835
7.118897915 -16.58919907 -6.793598175
10.60523987 27.74189949 -7.718081951
14.9925499 30.4948101 -6.954422951
12.38992023 34.30828094 -7.687275887
12.49209976 34.26182938 -7.685410976
14.94379044 31.60580063 -7.366072178
14.9187603 31.78515053 -7.603236198
14.57627964 30.08979034 -7.23804903
22.23726082 -42.2422905 -7.130004883
22.1167202 -42.32785034 -7.132976055
30.94592094 -27.8819294 -5.956552029
27.38759041 -27.88714981 -6.803880215
24.52286911 -26.88409042 -6.770792007
24.35350037 -27.02967072 -6.769688129
24.11269951 -27.09487915 -6.748716831
40.65859985 -8.747714043 -3.63756299
40.61923981 -8.727064133 -3.896908998
40.62923813 -8.859701157 -3.900491953
40.70381927 -8.893497467 -4.150241852
40.81526184 -8.763867378 -4.430813789
40.81052017 -8.775608063 -4.939533234
39.80773163 -9.198399544 -5.587369919
39.77642059 -9.319808006 -5.586960793
39.73897171 -9.439735413 -5.585732937
39.82115936 -9.204130173 -5.843869209
39.78406143 -9.324224472 -5.842586994
39.7485199 -9.44463253 -5.841589928
39.97269058 -9.241785049 -6.122285843
39.93643951 -9.362570763 -6.121098042
39.92485046 -9.489165306 -6.123771191
40.0402298 -9.234775543 -6.396089077
40.02902985 -9.361625671 -6.398873806
40.00492096 -9.485527992 -6.399647236
