# .PCD v0.7 - Point Cloud Data file format
VERSION 0.7
FIELDS x y z
SIZE 4 4 4
TYPE F F F
COUNT 1 1 1
WIDTH 163
HEIGHT 1
VIEWPOINT 0 0 0 1 0 0 0
POINTS 163
DATA ascii
10.60523987 27.74189949 -7.718081951
14.98174953 30.47283936 -6.949382782
14.86752033 31.69578934 -7.376432896
14.9575901 31.63499069 -7.372910023
14.85233021 31.64362907 -7.569206238
14.5613699 30.05901909 -7.230605125
14.58794975 30.3728199 -7.516590118
24.48262978 -38.64707184 -5.992869854
24.49419022 -36.66263962 -6.032876015
24.32070923 -37.1384697 -6.074344158
24.42569923 -37.80289078 -6.158915997
24.40212059 -38.54000854 -6.242671013
24.38924026 -38.78242111 -6.26995182
25.63743973 -35.4784584 -6.261407852
24.40390968 -36.05147171 -6.227219105
24.37660027 -36.25019836 -6.248730183
24.34388924 -36.4425087 -6.269101143
24.32228088 -36.65309906 -6.292605877
24.32302094 -36.89944077 -6.322237015
24.37507057 -37.2264595 -6.36568594
24.34494019 -37.43050003 -6.387908936
25.30784988 -35.25423813 -6.478240013
25.16338921 -35.28099823 -6.468883991
24.97784042 -35.24909973 -6.448836803
24.88610077 -35.3490181 -6.45314312
24.77979088 -35.42844009 -6.453736782
24.63035011 -35.4458313 -6.443045139
24.4633007 -35.67050934 -6.456559181
24.38158989 -35.78625107 -6.463984013
24.30661011 -35.9124794 -6.473339081
24.29011917 -36.12638855 -6.498583794
24.29507065 -36.37425995 -6.529918194
24.27466965 -36.58623123 -6.554717064
24.31245041 -37.13576126 -6.626739979
24.89826965 -35.09709167 -6.699940205
24.82406044 -35.22095108 -6.709067822
24.70001984 -35.27428818 -6.704736233
24.5883007 -35.34503937 -6.703807831
24.28923035 -35.60984039 -6.711389065
23.95433044 -30.68411064 -6.775942802
31.28746033 -29.96089935 -5.672525883
30.96871948 -27.90246964 -5.960968018
30.93445015 -27.36342049 -6.16327095
30.89468002 -27.49764061 -6.172182083
32.15562057 -26.20573997 -6.45720005
24.05780983 -27.03321075 -6.733264923
27.80858994 4.735931873 -6.628406048
27.88479996 4.397503853 -6.633235931
27.84129906 4.73946619 -6.81327486
27.81258011 4.646821022 -6.802662849
27.84108925 4.563828945 -6.806200981
27.95999908 5.111448765 -7.025574207
27.9045105 4.836324215 -7.000001907
27.85894012 4.740433216 -6.984804153
27.87527084 4.65526104 -6.985286236
27.89421082 4.570503235 -6.986493111
15.44122982 29.09444046 -7.130002022
40.74430084 -8.766152382 -3.645308971
39.22885895 7.430700779 -3.743511915
39.91936111 5.923756123 -3.784241915
39.97774887 5.807125092 -3.78810811
39.99832916 5.684867859 -3.788389921
40.67301178 -8.869245529 -3.904735088
39.34257889 6.439768791 -3.969516039
39.46334076 6.335285187 -3.979818106
39.64984131 5.991433144 -3.993020058
39.9072113 5.905158997 -4.017323017
39.97240067 5.789545059 -4.022123814
39.96337891 5.663114071 -4.019423008
40.62509155 -8.876296043 -4.142140865
39.13806915 7.543077946 -4.228796005
39.16950989 6.433088779 -4.211234093
39.18218994 6.311781883 -4.210488796
39.23181915 6.196351051 -4.213788033
39.32336044 6.087213993 -4.221663952
39.79861832 5.910953045 -4.269135952
39.9267807 5.804843903 -4.281056881
39.9690094 5.685822964 -4.283718109
40.69895935 -8.608356476 -4.415167809
40.68304825 -8.735474586 -4.416338921
39.00952148 7.625814915 -4.455601215
38.92538834 7.485459805 -4.44324398
38.8925209 7.35547781 -4.436841011
38.89048004 7.231582165 -4.434032917
38.90563965 7.110982895 -4.433247089
38.85588074 6.978765965 -4.425045967
38.8741684 6.859006882 -4.424708843
38.87152863 6.735640049 -4.422012806
38.89299011 6.616518021 -4.422124863
38.91212845 6.497002125 -4.422012806
38.94953156 6.380480766 -4.424035072
38.96598053 6.260482788 -4.423697948
39.02622986 6.147400856 -4.428415775
39.13426971 6.041437149 -4.438639164
39.9402504 5.915176868 -4.526597977
39.97198105 5.794610977 -4.528171062
40.00531006 5.674182892 -4.529967785
40.66072083 -8.748169899 -4.663984776
38.66141891 6.948275089 -4.64589119
38.67961884 6.829113007 -4.645535946
38.67593002 6.706171989 -4.642576218
38.69926071 6.587985039 -4.642930984
38.72417831 6.470044136 -4.643523216
38.74483109 6.351369858 -4.643640995
38.78765869 6.236256123 -4.646482944
38.8438797 6.123104095 -4.650981903
38.85366058 6.002539158 -4.649917126
39.90047073 5.913836956 -4.771755219
39.99213028 5.802090168 -4.78063488
39.98320007 5.675601006 -4.777438164
38.55765152 6.934045792 -4.883159161
38.57698059 6.693428993 -4.880291939
38.59146881 6.574044228 -4.879543781
38.62221909 6.457417011 -4.880915165
38.65653992 6.341304779 -4.88278389
40.04708099 5.689231873 -5.043072224
40.04005814 5.821310997 -5.295721054
40.05675125 5.698301792 -5.295589924
40.01728058 5.808306217 -5.529532909
40.02217102 5.683697224 -5.527760029
39.75231171 -9.314156532 -5.58355093
39.75149918 -9.44271183 -5.587506771
38.38991928 6.293186188 -5.560523987
38.42174911 6.177420139 -5.562376022
38.45714188 6.06213522 -5.564796925
38.46479034 5.94246006 -5.563230991
39.81874847 -9.332354546 -5.847714901
39.77548981 -9.451040268 -5.845579147
39.75497055 -9.575111389 -5.846859932
38.21891022 7.594964027 -5.812811852
38.2226181 7.473877907 -5.80984211
38.2298317 7.353588104 -5.80746603
38.30709839 6.397850037 -5.793507099
38.3397789 6.161739826 -5.792615891
38.34167862 5.920940876 -5.787270069
38.36259079 5.80372715 -5.787714958
39.9524498 -9.237107277 -6.119166851
39.94511032 -9.364601135 -6.122434139
39.90657043 -9.48482132 -6.120948792
38.21669006 7.494124889 -6.059903145
38.20943069 7.371041775 -6.055107117
38.23962021 7.255256176 -6.056344986
38.24713898 7.135187149 -6.05402422
38.25912857 7.016030788 -6.052476883
38.24935913 6.893013954 -6.047525883
38.27518845 6.77649498 -6.048299789
38.28023148 6.656330109 -6.045825005
38.27222824 6.534035206 -6.041337967
38.30572891 6.41887188 -6.043504238
38.25603104 6.289944172 -6.032519817
38.28490067 6.174118996 -6.034067154
38.29586029 6.055398941 -6.032828808
38.33084869 5.940453053 -6.035459042
38.34889984 5.822826862 -6.035459042
38.37928009 5.707036018 -6.037469864
39.9905014 -9.48210907 -6.397326946
38.19451904 7.47342205 -6.278667927
38.32572937 7.133491993 -6.289243221
38.48794174 6.797789097 -6.305426121
38.34424973 6.65116787 -6.278347969
38.32696915 5.803324223 -6.253512859
38.3484993 5.686289787 -6.254154205
40.02307892 -9.507226944 -6.638696194
