# .PCD v0.7 - Point Cloud Data file format
VERSION 0.7
FIELDS x y z
SIZE 4 4 4
TYPE F F F
COUNT 1 1 1
WIDTH 148
HEIGHT 1
VIEWPOINT 0 0 0 1 0 0 0
POINTS 148
DATA ascii
13.19192982 -24.85617065 -5.921273232
13.07594013 -24.82122993 -5.903244019
12.99248028 -24.84736061 -5.899928093
12.81871986 -24.88573074 -5.890188217
12.73384953 -24.90839005 -5.886250973
12.63611984 -24.90546989 -5.87630415
12.48612976 -24.98866081 -5.877755165
11.8591404 -25.2663002 -5.8727808
11.89595032 -25.54822922 -5.930182934
13.14805031 -24.78820038 -6.068045139
13.06101036 -24.80767059 -6.062940121
12.90629959 -24.88301086 -6.061876774
12.45718002 -24.94605064 -6.029760838
12.37016964 -24.96314049 -6.024655819
12.2762804 -24.96590042 -6.016149044
12.19406033 -24.99202919 -6.013382912
12.11435032 -25.02317047 -6.01189518
12.03625011 -25.0575695 -6.011257172
11.95217037 -25.07938957 -6.007640839
11.90983963 -25.18925095 -6.025293827
11.79681969 -25.14959908 -6.007002831
11.72908974 -25.20605087 -6.01189518
13.05930996 -24.78774071 -6.243469238
12.89078999 -24.83622932 -6.235590935
12.79934025 -24.84617043 -6.228151798
12.71683025 -24.87315941 -6.22508812
12.6276598 -24.88681984 -6.218741894
12.53631973 -24.89582062 -6.211301804
12.45508957 -24.92456055 -6.208895206
12.36728954 -24.93992043 -6.203206062
12.28295994 -24.96199036 -6.199266911
12.19561958 -24.97764015 -6.193796158
12.11126995 -24.99913025 -6.189857006
12.03283024 -25.03264999 -6.18898201
11.95512962 -25.0676899 -6.188543797
11.88109016 -25.11042023 -6.190075874
11.79197025 -25.12113953 -6.183730125
11.71854973 -25.16515923 -6.185698986
13.14988041 -24.78313065 -6.427042961
13.06698036 -24.81041908 -6.423674107
12.98764038 -24.84435081 -6.422101021
12.91224957 -24.88581085 -6.422551155
12.52396965 -24.8796196 -6.380548
12.42667961 -24.87607956 -6.369767189
12.35029984 -24.9140892 -6.369767189
12.26220036 -24.92824936 -6.363702774
12.1677103 -24.92897034 -6.354269028
12.09372044 -24.97145081 -6.355617046
12.01451969 -25.00316048 -6.354269028
11.95326996 -25.07245064 -6.362578869
11.89754009 -25.15393066 -6.374034882
11.78637028 -25.11797905 -6.355617046
11.74380016 -25.22822952 -6.374484062
11.6855402 -25.30571938 -6.385041237
13.2587204 -24.80841064 -6.609540939
13.16431046 -24.81458092 -6.600338936
13.05727959 -24.79630089 -6.584695816
12.87979031 -24.82756996 -6.571813107
12.79197979 -24.84446907 -6.565832138
12.69532967 -24.84374046 -6.555250168
12.59747982 -24.84004021 -6.543976784
12.51115036 -24.85857964 -6.538685799
12.42656994 -24.88030052 -6.534315109
12.34197044 -24.90173912 -6.529943943
12.25734997 -24.92289925 -6.525572777
12.17315006 -24.94463921 -6.521431923
12.09189987 -24.97224045 -6.518901825
12.01817989 -25.01535988 -6.520512104
11.93927956 -25.04771996 -6.519361973
11.86445999 -25.08863068 -6.520512104
11.78660011 -25.12314987 -6.520051956
11.72548962 -25.1935997 -6.529024124
11.68852043 -25.31693077 -6.55179882
11.65375042 -25.44646072 -6.576183796
13.1962204 -24.87902069 -6.79393816
13.0433197 -24.77407074 -6.754085064
12.96815014 -24.81568909 -6.754556179
12.88659 -24.84499931 -6.751726151
12.80496979 -24.87405014 -6.748897076
12.72682953 -24.90975952 -6.747952938
12.64815044 -24.94436073 -6.746774197
12.57024956 -24.98044014 -6.746067047
12.44145012 -24.91455078 -6.717768192
12.09961987 -24.9927597 -6.698194981
12.01784039 -25.01925087 -6.695364952
11.93852043 -25.05073929 -6.693950176
11.85953045 -25.0828495 -6.692770958
11.78127956 -25.11647987 -6.692063808
11.75255013 -25.25646973 -6.719891071
11.70188999 -25.35065079 -6.735455036
11.65400028 -25.45181084 -6.752904892
13.03948975 -24.77107048 -6.918703079
12.9607296 -24.80579948 -6.917254925
12.87652969 -24.8299408 -6.912912846
12.79230022 -24.85379982 -6.908570766
12.70759964 -24.87649918 -6.903986931
12.61937046 -24.8920002 -6.897472858
12.52985001 -24.90459061 -6.890235901
12.43908024 -24.9142704 -6.882275105
12.35741997 -24.94187927 -6.879380226
12.26885033 -24.95528984 -6.872624874
12.18202019 -24.97187996 -6.866835117
12.10112 -25.00040054 -6.864422798
12.0197401 -25.02778053 -6.861769199
11.94038963 -25.05928993 -6.860321999
11.86429024 -25.09756088 -6.860804081
11.79465008 -25.14965057 -6.865147114
11.7788496 -25.31769943 -6.901332855
11.64752007 -25.44244003 -6.915808201
12.95582962 -24.7729702 -7.090960979
12.86995029 -24.79368019 -7.085524082
12.78405952 -24.81409073 -7.080086231
12.69948959 -24.83680916 -7.075388908
12.61577988 -24.86096001 -7.071187019
12.52418995 -24.86926079 -7.062537193
12.43657017 -24.88503075 -7.056109905
12.35198975 -24.90657043 -7.051414013
12.26568031 -24.92435074 -7.04572916
12.18150043 -24.94618988 -7.041279793
12.09984016 -24.9729805 -7.038313866
12.0214901 -25.00649071 -7.037324905
11.94554996 -25.04500961 -7.037819862
11.87279987 -25.09029961 -7.040291786
11.79946995 -25.1345005 -7.042516232
12.83718967 -24.74544907 -7.241910934
12.58395958 -24.81336975 -7.227503777
12.13481998 -24.86609077 -7.187571049
12.06816959 -24.92322922 -7.193384171
12.00673008 -24.99154091 -7.202483177
11.92749977 -25.02301025 -7.200965881
11.73390007 -25.41522026 -7.272240162
14.95845032 31.11647034 -6.846961021
12.40587044 34.35243988 -7.697223186
14.63078022 30.43997002 -7.311851978
14.56945992 30.07571983 -7.234645844
14.6702404 30.04844093 -7.238899231
14.68828964 30.34284973 -7.520309925
30.92164993 -27.86006927 -5.951850891
24.8234005 -26.88043022 -6.808318138
24.14981079 -26.96952057 -6.735840797
15.54615974 30.40469933 -6.771849155
15.65956974 30.39608955 -6.780652046
15.76902008 30.37924004 -6.787693977
40.62742996 -8.741008759 -3.634746075
40.78845978 -8.627287865 -4.42496109
40.82003021 -8.782447815 -4.682407856
42.73450089 6.891561031 -6.739854813
42.75349045 6.760111809 -6.739545822
