# .PCD v0.7 - Point Cloud Data file format
VERSION 0.7
FIELDS x y z
SIZE 4 4 4
TYPE F F F
COUNT 1 1 1
WIDTH 79
HEIGHT 1
VIEWPOINT 0 0 0 1 0 0 0
POINTS 79
DATA ascii
7.483431816 -14.97317982 -6.090303898
7.424108982 -14.96914959 -6.079296112
7.364050865 -14.96321964 -6.067601204
7.300804138 -14.95030022 -6.053153038
7.189404011 -14.95419979 -6.036642075
7.128936768 -14.94567013 -6.024258137
7.081041813 -14.96323013 -6.022538185
7.011558056 -14.93474007 -6.002243042
6.955001831 -14.93319988 -5.992955208
6.907185078 -14.95020008 -5.991234779
6.85072279 -14.94828033 -5.981947899
6.806773186 -14.97350025 -5.98366785
6.754628181 -14.98060989 -5.978164196
6.706718922 -14.99697971 -5.976443768
8.90144062 -15.92903996 -6.751372814
8.79387188 -15.85056019 -6.706365108
8.757411003 -15.89962959 -6.715785027
8.726127625 -15.95849037 -6.729392052
8.609814644 -15.97789955 -6.715086937
7.491586208 -14.87209034 -6.157546043
7.4329319 -14.86902046 -6.146729946
7.368118763 -14.85313034 -6.130681038
7.29229784 -14.81429005 -6.105210781
7.239820004 -14.82227993 -6.099279881
7.170602798 -14.79551029 -6.079043865
7.100806236 -14.76677036 -6.058110237
7.052642822 -14.78256035 -6.055667877
6.977182865 -14.74059963 -6.029500008
6.926746845 -14.75090981 -6.024964809
6.871564865 -14.75084972 -6.016242027
6.819985867 -14.75825977 -6.010660172
6.768036842 -14.76463032 -6.00472784
6.718440056 -14.77593994 -6.000891209
6.667682171 -14.78452015 -5.996006012
6.622674942 -14.80576038 -5.996355057
6.57075882 -14.81145 -5.990424156
6.520757198 -14.82124043 -5.986237049
8.675451279 -15.74765015 -6.765975952
8.62395668 -15.76844978 -6.763496876
7.38075304 -14.76105976 -6.207161903
7.316729069 -14.74594021 -6.191226006
7.249563217 -14.72385025 -6.172458172
7.184244156 -14.70483971 -6.155106068
7.112990856 -14.67296028 -6.132441044
7.045245171 -14.64750957 -6.112609863
6.704288006 -14.6216898 -6.048867226
6.634235859 -14.58685017 -6.025848866
6.593681812 -14.61651039 -6.029744148
6.53238821 -14.59996986 -6.01451683
7.022582054 -14.59727955 -6.195298195
14.98649979 30.48250961 -6.951601028
12.48808002 34.25080109 -7.682923794
23.9876709 -30.72681046 -6.785428047
30.98563004 -27.91770935 -5.964243889
27.16782951 -26.0315094 -6.304886818
28.25625038 -24.21735954 -6.925311089
28.11930084 -24.25000954 -6.90985918
24.19953918 -26.85878944 -6.726643085
24.12685966 -26.94388962 -6.729403019
24.03363037 -27.00604057 -6.726459026
24.47373009 -26.84313011 -6.975618839
24.35961914 -26.88315964 -6.966516972
15.44750977 34.29653168 -7.702324867
40.82902145 -8.784381866 -3.652966976
40.66883087 -8.88585186 -4.146642208
40.68498993 -8.735892296 -4.416552067
39.81544876 -9.200184822 -5.588460922
39.7889595 -9.322745323 -5.58873415
39.75342941 -9.443169594 -5.587779999
39.73968124 -9.568798065 -5.589962006
39.83031082 -9.335064888 -5.849424839
39.77548981 -9.451040268 -5.845579147
39.99195862 -9.246239662 -6.125256062
39.93162918 -9.361441612 -6.120355129
39.90945816 -9.485507011 -6.121395111
39.91189957 -9.615545273 -6.12629509
39.9969101 -9.224783897 -6.389126778
39.96649933 -9.346999168 -6.388817787
39.93571091 -9.469115257 -6.388507843
