# .PCD v0.7 - Point Cloud Data file format
VERSION 0.7
FIELDS x y z
SIZE 4 4 4
TYPE F F F
COUNT 1 1 1
WIDTH 1272
HEIGHT 1
VIEWPOINT 0 0 0 1 0 0 0
POINTS 1272
DATA ascii
9.301669121 -18.91223907 -6.246123791
9.238139153 -18.92948914 -6.242407799
9.179185867 -18.95602036 -6.241837025
9.119739532 -18.98150063 -6.240979195
9.061051369 -19.00852966 -6.240693092
9.043664932 -19.12285995 -6.269279003
9.331986427 -18.9623394 -6.392186165
9.224237442 -18.88944054 -6.357823849
9.16582489 -18.91679001 -6.357532978
9.104845047 -18.93878937 -6.355494022
9.049992561 -18.97353935 -6.357823849
8.998696327 -19.01590919 -6.362773895
8.950476646 -19.06508064 -6.370053768
8.898405075 -19.10633087 -6.374712944
8.887486458 -19.23689079 -6.409367085
9.548953056 -19.11024094 -6.600515842
9.423680305 -19.00513077 -6.553906918
9.274692535 -18.84973907 -6.490078926
9.214723587 -18.87380981 -6.488595009
9.156359673 -18.90113068 -6.488297939
9.09832859 -18.92913055 -6.488297939
9.039390564 -18.95523071 -6.4877038
8.984460831 -18.98978043 -6.490078926
8.927375793 -19.01984978 -6.490970135
8.877446175 -19.06533051 -6.497203827
8.824118614 -19.10375023 -6.50106287
8.771036148 -19.14287949 -6.505218983
9.632195473 -18.82863998 -6.663731098
9.581721306 -18.87254906 -6.668868065
9.517342567 -18.88908958 -6.664334774
9.455082893 -18.90966988 -6.661313057
9.3682127 -18.8805294 -6.640762806
9.311507225 -18.91173935 -6.641670227
9.108955383 -18.93823051 -6.621119976
9.045063019 -18.95404053 -6.616889
8.984830856 -18.97739029 -6.615377903
8.922513962 -18.99624062 -6.612356186
8.865802765 -19.02697945 -6.613564968
8.81018734 -19.06015015 -6.615680218
8.771933556 -19.1312809 -6.631093025
9.542722702 -18.95145988 -6.812091827
9.48368454 -18.9789505 -6.811478138
9.410193443 -18.97726059 -6.800413132
9.346885681 -18.99580002 -6.796724796
9.26977253 -18.98590088 -6.782894135
9.195300102 -18.98085976 -6.770905972
9.123005867 -18.97982025 -6.760457039
9.060637474 -18.99913025 -6.75738287
8.988872528 -18.99844933 -6.747240067
8.923266411 -19.01044083 -6.741707802
8.86650753 -19.04117012 -6.742937088
8.845164299 -19.14862061 -6.771522045
9.580958366 -19.01601982 -6.97597599
9.498365402 -18.99690056 -6.958135128
9.462830544 -19.07189941 -6.975037098
9.381623268 -19.05483055 -6.958135128
9.315616608 -19.0681591 -6.95250082
9.252101898 -19.08638954 -6.948744774
9.183623314 -19.09415054 -6.941233158
9.113548279 -19.09823036 -6.932468891
9.052881241 -19.12181091 -6.930903912
8.996191978 -19.15378952 -6.932468891
9.587792397 -19.04163933 -7.116663933
9.517887115 -19.04807091 -7.108069897
9.387021065 -19.07803917 -7.097567081
9.325950623 -19.1016407 -7.095656872
9.251599312 -19.09774017 -7.083561897
9.201177597 -19.14311981 -7.08992815
9.138731956 -19.16356087 -7.087062836
9.068949699 -19.16836929 -7.0784688
9.015335083 -19.20726013 -7.082606792
8.954364777 -19.23052979 -7.08101511
9.320920944 -19.09520912 -7.212768078
9.244967461 -19.08794975 -7.199197769
9.183492661 -19.11025047 -7.196936131
9.129301071 -19.14772987 -7.200489998
9.079416275 -19.19446945 -7.207598209
9.014857292 -19.21023941 -7.203074932
8.951085091 -19.22751045 -7.199197769
9.523943901 -19.1982193 -7.408737183
9.38698101 -19.06888008 -7.347331047
9.329263687 -19.09929085 -7.347988129
9.275979996 -19.13887024 -7.352256775
9.195112228 -19.12126923 -7.334525108
9.144540787 -19.16643906 -7.34109211
8.947007179 -19.20527077 -7.324017048
8.8872509 -19.23090935 -7.323359966
8.843562126 -19.29157066 -7.336165905
8.957525253 -19.23328972 -7.471535206
8.895313263 -19.25382996 -7.468863964
10.62182045 27.78528023 -7.730214119
14.33782005 11.84572983 -6.544219017
14.37627983 11.80348015 -6.545220852
14.40950012 11.75693989 -6.543886185
14.42133999 11.69309044 -6.532869816
14.44025993 11.63519001 -6.525191784
14.48178005 11.59554005 -6.527863026
14.89163971 10.97869015 -6.509837151
14.94122028 10.94464016 -6.516847134
14.99073029 10.91040039 -6.523857117
14.13484955 11.89655972 -6.613144875
14.16477966 11.84770966 -6.610095978
14.19454956 11.79878998 -6.607045174
14.21255016 11.74020004 -6.598573208
14.22159004 11.67446041 -6.586032867
14.24932003 11.62423038 -6.582304955
14.30245972 11.59467983 -6.590438843
14.28960991 11.51179028 -6.568070889
14.54370022 10.99824047 -6.526387215
14.57211018 10.94962025 -6.524013996
14.60488033 10.9042902 -6.523674965
14.67605019 10.88745975 -6.54061985
14.7230196 10.85243034 -6.546720982
14.78888035 10.83111954 -6.561294079
14.0822897 11.63469982 -6.649971008
14.09613991 11.57355976 -6.639651775
14.12285042 11.52313995 -6.635523796
14.2922802 10.94859028 -6.553655148
14.33850002 10.91436005 -6.559503078
14.37267017 10.87088966 -6.559846878
14.41720963 10.83520031 -6.565005779
14.46769047 10.80383968 -6.572917938
14.5671196 10.80865002 -6.603188992
14.12530041 10.96084023 -6.614254951
14.15441036 10.91401958 -6.612162113
14.1833601 10.86713028 -6.610067844
14.21887016 10.82526016 -6.611114979
14.2497797 10.77989006 -6.610067844
14.09111977 10.79839993 -6.680276871
14.11526012 10.74831963 -6.676026821
14.94631004 30.40076065 -6.932853222
14.54858971 30.03263092 -7.224224091
31.19039917 -30.05194092 -5.671610832
31.22120094 -30.2668705 -5.694221973
31.1778698 -30.41097069 -5.703372002
30.96949959 -28.07579041 -5.977777958
30.87151909 -28.15999985 -5.975499153
30.81778908 -28.28470039 -5.981908798
31.17527962 -27.06912041 -6.16134119
31.09506035 -27.16724014 -6.161934853
30.91461945 -27.51539993 -6.176190853
30.92436028 -27.69454956 -6.195199013
30.88553047 -27.83099937 -6.204555035
30.85714912 -27.97743988 -6.216136932
31.0044899 -27.05880928 -6.405526161
18.04141998 -7.02032423 -3.583833933
18.06004906 -7.091450214 -3.591928005
18.0592308 -7.15515089 -3.596158981
18.05452919 -7.21745491 -3.599653959
18.03322029 -7.273180008 -3.599838018
17.99352074 -7.321432114 -3.59634304
17.96006012 -7.372120857 -3.594136
17.82253075 -5.588583946 -3.567765951
17.90545082 -5.674975872 -3.588053942
17.93939018 -5.746355057 -3.598483086
17.9431591 -5.808320045 -3.602844
17.9317894 -5.865478039 -3.604171038
17.89879036 -5.915534973 -3.601136923
17.91222954 -5.98099184 -3.607584
17.92169952 -6.045331955 -3.613271952
18.33773041 -7.01179409 -3.752065897
18.29323006 -7.059184074 -3.747325897
18.16810036 -7.075015068 -3.725899935
18.00649071 -7.075780869 -3.696890116
18.16906929 -7.204091072 -3.735191107
18.15690994 -7.263811111 -3.737277031
18.07444954 -7.295228004 -3.724762917
18.07379913 -7.359530926 -3.729312897
18.06748962 -7.4216609 -3.732726097
32.88307953 9.093363762 -6.765590191
17.75835037 -5.213098049 -3.652163982
17.88517952 -5.309971809 -3.681895018
18.00687027 -5.406262875 -3.710649014
18.03993988 -5.476576805 -3.72101593
17.95836067 -5.51204586 -3.707520008
18.12962914 -5.625521183 -3.746835947
17.90267944 -5.615383148 -3.703021049
18.08262062 -5.732803822 -3.744292974
18.14994049 -5.815478802 -3.762093067
18.12548065 -5.869020939 -3.760724068
18.10924911 -5.925210953 -3.761115074
18.08725929 -5.979510784 -3.760333061
17.98353958 -6.501255989 -3.774806976
17.95520973 -6.553371906 -3.77304697
17.94146919 -6.610799789 -3.77441597
17.94499969 -6.674699783 -3.779501915
17.93729019 -6.734548092 -3.782239914
17.92663002 -6.793368816 -3.784392118
17.96066093 -6.869351864 -3.796128035
17.95049095 -6.928658962 -3.798475981
18.03058052 -7.023200989 -3.820188046
18.00712013 -7.077767849 -3.819796085
17.95980072 -7.122858047 -3.814318895
17.99885941 -7.20233202 -3.827425003
32.66569138 9.479491234 -6.961075783
32.69367981 9.378959656 -6.960874081
32.71382141 9.276207924 -6.959060192
18.8731308 -5.09414196 -3.98398304
18.54846001 -5.067590237 -3.918062925
18.4856205 -5.111416817 -3.907983065
18.31328011 -5.124285221 -3.87451911
18.23244095 -5.16203022 -3.860609055
18.09412003 -5.182871819 -3.834402084
18.0771904 -5.238087177 -3.834201097
17.98866081 -5.272305012 -3.818677902
17.98273087 -5.330532074 -3.82089591
17.95343018 -5.441907883 -3.821702003
17.89357948 -5.483757973 -3.812428951
17.93280029 -5.556025028 -3.824523926
17.90398026 -5.667727947 -3.8257339
17.81653976 -5.700240135 -3.810615063
17.79430962 -5.753366947 -3.809607029
17.78123093 -5.809453011 -3.810615063
17.79494095 -5.874419212 -3.817468882
17.81864929 -5.942934036 -3.826539993
17.81797028 -6.003516197 -3.830370903
17.82821083 -6.067936897 -3.836620092
17.84563065 -6.135025978 -3.844481945
17.85263062 -6.19874382 -3.850126982
17.87235069 -6.267100811 -3.858592987
17.86688995 -6.326807976 -3.861617088
17.87874985 -6.392807007 -3.868470907
17.89314079 -6.459937096 -3.875930071
17.89255905 -6.521846771 -3.880162954
17.89821053 -6.586183071 -3.885807991
17.90179062 -6.649931908 -3.891048908
17.90605927 -6.714108944 -3.896492004
17.91011047 -6.778375149 -3.901935101
17.91667938 -6.84377718 -3.907983065
17.91296959 -6.905406952 -3.911813021
17.92090988 -6.9716959 -3.918263912
17.92040062 -7.034876823 -3.922900915
17.91695023 -7.097039223 -3.92693305
17.91054916 -7.158154011 -3.930360079
17.82492065 -7.187425137 -3.916248083
19.00311089 -4.943729877 -4.119832993
18.79676056 -4.951663017 -4.077972889
18.78903961 -5.011323929 -4.079630852
18.53084946 -5.003402233 -4.02637291
18.38801956 -5.025411129 -3.998397112
18.2593708 -5.050501823 -3.973530054
18.18914032 -5.091201782 -3.961509943
18.06425095 -5.116055965 -3.937472105
17.9864006 -5.153666019 -3.923794985
17.90003967 -5.188395977 -3.908252001
17.81269073 -5.222367764 -3.892503023
17.6690197 -5.239165783 -3.86432004
17.66411018 -5.296720982 -3.866806984
17.67211914 -5.358270168 -3.872195005
17.6883297 -5.42249918 -3.879447937
17.70339012 -5.486587048 -3.886492968
17.70886993 -5.547894001 -3.891467094
17.73467064 -5.615784168 -3.901000023
17.75649071 -5.682692051 -3.909703016
17.76317978 -5.744968891 -3.915091038
17.77708054 -5.809772015 -3.922137022
17.7786808 -5.870726109 -3.926489115
17.79306984 -5.936079979 -3.933742046
17.78867912 -5.995326996 -3.936850071
17.81279945 -6.064377785 -3.946382999
17.82002068 -6.127905846 -3.952184916
17.84272003 -6.19699192 -3.961509943
17.85408974 -6.262390137 -3.96834898
17.85415077 -6.323996067 -3.972701073
17.86137962 -6.388297081 -3.978709936
17.86837959 -6.452701092 -3.984719992
17.8687191 -6.514863014 -3.989279032
17.87067986 -6.577764034 -3.994251966
17.87425995 -6.64141798 -3.999639988
17.89685059 -6.712371826 -4.009379864
17.90179062 -6.776946068 -4.015182018
17.90833092 -6.842310905 -4.021399021
17.91828918 -6.909189224 -4.028444767
17.91525078 -6.971223831 -4.032589912
17.91198921 -7.033306122 -4.036734104
17.91305923 -7.097236156 -4.04191494
17.90209961 -7.156517029 -4.044402122
17.90456009 -7.22128582 -4.049996853
17.88957024 -7.279131889 -4.051654816
18.93273926 -4.930631161 -4.218924046
18.93453026 -4.993176937 -4.222752094
18.62647057 -4.97311306 -4.156817913
18.47624016 -4.993780136 -4.126403809
18.31851006 -5.011508942 -4.094287872
18.16274071 -5.028840065 -4.062596798
18.07760048 -5.065032005 -4.046857834
17.98677063 -5.099151134 -4.029842854
17.86865997 -5.124948978 -4.006659985
17.79841995 -5.163953781 -3.994323969
17.66436005 -5.183868885 -3.967525005
17.66242981 -5.242208004 -3.970715046
17.6584301 -5.300022125 -3.973479986
17.66358948 -5.360699177 -3.978372097
17.67415047 -5.423175812 -3.984539986
17.68729019 -5.486638069 -3.991345882
17.69367981 -5.548183918 -3.996664047
17.7184906 -5.61572504 -4.006235123
17.72537994 -5.677807808 -4.011765003
17.73575974 -5.741189003 -4.018145084
17.75613976 -5.808029175 -4.026865005
17.76608086 -5.871675014 -4.03324604
17.77300072 -5.934506893 -4.038989067
17.78619003 -5.999623775 -4.046219826
17.79915047 -6.064877987 -4.053452015
17.81278992 -6.130585194 -4.060894966
17.8345108 -6.199319839 -4.070253849
17.83846092 -6.262097836 -4.07557106
17.85323906 -6.328875065 -4.083440781
17.85674095 -6.391849995 -4.088757992
17.86094093 -6.455237865 -4.094287872
17.86399078 -6.518376827 -4.099605083
17.87324905 -6.583960056 -4.10641098
17.87861061 -6.648299217 -4.112367153
17.88832092 -6.714448929 -4.119384766
17.91057968 -6.785568237 -4.129382133
17.91523933 -6.850255013 -4.135336876
17.91601944 -6.913629055 -4.140440941
17.91657066 -6.977070808 -4.145545959
17.91963959 -7.04165411 -4.151288986
17.9170208 -7.104159832 -4.155755043
17.90785027 -7.164175987 -4.158732891
17.94286919 -7.242123127 -4.172132015
18.85111046 -4.904029846 -4.328536034
18.74822044 -4.938731194 -4.308186054
18.58213043 -4.956003189 -4.273172855
18.43024063 -4.976117134 -4.241444111
18.33205032 -5.010004997 -4.222187996
18.13320923 -5.015511036 -4.179516792
17.88521004 -5.065272808 -4.128967762
17.8001709 -5.100234985 -4.112774849
17.66636086 -5.120602131 -4.085203171
17.64401054 -5.172855854 -4.083672047
17.64488983 -5.231955051 -4.087609768
17.64558029 -5.291108131 -4.09154892
17.65167999 -5.352012157 -4.096800804
17.66036987 -5.413862228 -4.102708817
17.67629051 -5.478125095 -4.110367775
17.69105911 -5.542244911 -4.117807865
17.70189095 -5.60532999 -4.124372959
17.71249008 -5.668532848 -4.130938053
17.72193909 -5.731553078 -4.137282848
17.73302078 -5.795290947 -4.144066811
17.74758911 -5.860373974 -4.151725769
17.75543976 -5.92343998 -4.157853127
17.7704792 -5.989101887 -4.16573
17.7741909 -6.051138878 -4.170981884
17.79429054 -6.118965149 -4.18017292
17.81045914 -6.18569088 -4.188488007
17.82455063 -6.251927853 -4.196365833
17.8282795 -6.31472683 -4.201837063
17.84007072 -6.380564213 -4.209277153
17.84885979 -6.445538998 -4.216060162
17.85741997 -6.510628223 -4.222844124
17.86116982 -6.574143887 -4.228532791
17.88116074 -6.643861771 -4.238162041
17.89632988 -6.712049961 -4.246695995
17.89480972 -6.774178028 -4.251290798
17.9031105 -6.84018898 -4.258294106
17.90844917 -6.90526104 -4.264638901
17.91082001 -6.969368935 -4.270328999
17.90389061 -7.02999115 -4.273829937
17.90129089 -7.092432976 -4.278425217
17.89575005 -7.153839111 -4.282363892
17.90086937 -7.219655991 -4.288928986
18.96166039 -4.810760975 -4.469334126
18.88829994 -4.853871822 -4.455408096
18.84219933 -4.903697014 -4.44799614
18.45667076 -4.98515892 -4.366910934
18.31251907 -5.006546021 -4.336140156
18.18156052 -5.030735016 -4.308513165
17.84095955 -5.054526806 -4.234391212
17.81225967 -5.10547781 -4.231245995
17.62991905 -5.111787796 -4.19126606
17.62257004 -5.168321133 -4.193286896
17.62251091 -5.227074146 -4.197104931
17.62225914 -5.28587389 -4.20092392
17.62741089 -5.346419811 -4.206089973
17.63607979 -5.408189774 -4.212153912
17.64917946 -5.471507072 -4.219342232
17.65834999 -5.533789158 -4.225631237
17.66637039 -5.595883846 -4.231696129
17.68810081 -5.662539005 -4.241128922
17.70680046 -5.728477955 -4.249888897
17.71693039 -5.791860104 -4.256628036
17.72406006 -5.854441166 -4.262691975
17.72912025 -5.916502953 -4.268307209
17.74873924 -5.983633995 -4.277515888
17.76350975 -6.049368858 -4.285602093
17.77803993 -6.115251064 -4.29368782
17.78404045 -6.17840004 -4.299753189
17.79534912 -6.243578911 -4.307165146
17.80183029 -6.307259083 -4.313454151
17.8135891 -6.373006821 -4.321091175
17.8168602 -6.435905933 -4.326705933
17.82723999 -6.50155592 -4.334117889
17.84288025 -6.56935215 -4.342877865
17.84729958 -6.633228779 -4.348943233
17.8487606 -6.6961689 -4.354332924
17.85911942 -6.762630939 -4.361969948
17.87195969 -6.830264091 -4.370281219
17.86547089 -6.890674114 -4.373874187
17.87874985 -6.958885193 -4.382410049
17.87182999 -7.019403934 -4.386003017
17.86833 -7.081381798 -4.390495777
17.8709507 -7.14593792 -4.396560192
17.87244034 -7.210212231 -4.402400017
18.04878998 -7.345837116 -4.451814175
19.19034958 -4.870487213 -4.64031601
18.48224068 -4.932941914 -4.482040882
18.37118912 -4.963727951 -4.458576202
18.23385048 -4.986690998 -4.42866993
18.17531967 -5.030664921 -4.418087006
18.15722084 -5.145806789 -4.421308994
17.80550957 -5.1051898 -4.338719845
17.6233902 -5.111535072 -4.297770977
17.6328392 -5.172976017 -4.303983212
17.61874962 -5.227602005 -4.304442883
17.62126923 -5.28722477 -4.309043884
17.62918091 -5.348608017 -4.315024853
17.6350193 -5.409517765 -4.320547104
17.63693047 -5.469361782 -4.325148106
17.64886093 -5.532470226 -4.332279205
17.66241074 -5.596291065 -4.33987093
17.67760086 -5.660840034 -4.347921848
17.72496033 -5.736022949 -4.36402607
17.70173073 -5.788560867 -4.362646103
17.72084999 -5.855054855 -4.371848106
17.73233986 -5.91925478 -4.379209042
17.76390076 -5.990423203 -4.39163208
17.7712307 -6.053680897 -4.398073196
17.78202057 -6.11830616 -4.405435085
17.7824707 -6.179541111 -4.410265923
17.79372978 -6.244702816 -4.417858124
17.8001709 -6.308366776 -4.424298763
17.80180931 -6.370490074 -4.429590225
17.80871964 -6.434666157 -4.436262131
17.82821083 -6.503612995 -4.446154118
17.84012985 -6.570051193 -4.45420599
17.84816933 -6.635265827 -4.46133709
17.84412956 -6.696146011 -4.465477943
17.85536003 -6.762926102 -4.473529816
17.8554306 -6.825665951 -4.478820801
17.85619926 -6.888821125 -4.484342098
17.85765076 -6.95239687 -4.490093231
17.84981918 -7.012488842 -4.493544102
17.8571701 -7.07869482 -4.500905991
17.85705948 -7.142120838 -4.506426811
17.89101982 -7.219451904 -4.520689964
18.13919067 -7.384393215 -4.58970499
17.9505806 -7.436329842 -4.553126812
19.29740906 -4.899354935 -4.791348934
18.44602013 -4.985613823 -4.596796989
18.19536018 -4.977821827 -4.537607193
18.08167076 -5.006394863 -4.512845993
18.0100708 -5.046114922 -4.49869585
17.88138008 -5.06927681 -4.470161915
17.88816071 -5.130541801 -4.475821018
17.75847054 -5.152363777 -4.447052002
17.63814926 -5.176176071 -4.420639992
17.63056946 -5.2327528 -4.422761917
17.62932014 -5.291286945 -4.42653513
17.63253021 -5.351274967 -4.431487083
17.63554001 -5.41133213 -4.436439991
17.65413094 -5.476350784 -4.445401192
17.64929962 -5.534266949 -4.448465824
17.66836929 -5.599839211 -4.457664013
17.66036034 -5.656981945 -4.460021019
17.68821907 -5.725800991 -4.471577168
17.7241497 -5.797563076 -4.485253811
17.72196007 -5.857096195 -4.489264011
17.75645065 -5.928981781 -4.502705097
17.77500916 -5.995852947 -4.51213789
17.77309036 -6.056000233 -4.516383171
17.78474998 -6.12093401 -4.524165154
17.79250908 -6.184720993 -4.531002998
17.79911995 -6.248291016 -4.537607193
17.81101036 -6.313907146 -4.545623779
17.81443024 -6.376708031 -4.551519871
17.83864975 -6.447185993 -4.562839985
17.8434391 -6.510878086 -4.569207191
17.84527016 -6.573650837 -4.574865818
17.85416031 -6.639206886 -4.582411766
17.85190964 -6.700780869 -4.587129116
17.85853004 -6.765847206 -4.594202995
17.86128998 -6.829627991 -4.600335121
17.85928917 -6.891739845 -4.605287075
17.8597908 -6.954961777 -4.610947132
17.87273979 -7.023227215 -4.619907856
17.86557007 -7.083757877 -4.623681068
17.85638046 -7.14358902 -4.626983166
17.85330963 -7.205976009 -4.63193512
18.11282921 -7.375421047 -4.705747128
19.25642967 -4.890644073 -4.89876318
18.45590019 -4.98995018 -4.712522984
18.14565086 -4.965875149 -4.636529922
18.08917046 -5.010126114 -4.625916004
17.97186089 -5.037057877 -4.599619865
17.86482048 -5.06622982 -4.575977802
17.79602051 -5.105762005 -4.562226772
17.67308998 -5.129236221 -4.53448391
17.6228199 -5.173319817 -4.525557995
17.61989021 -5.231227875 -4.528934956
17.61491013 -5.288609028 -4.531829834
17.61067009 -5.346289158 -4.534965992
17.62108994 -5.408548832 -4.5419631
17.62665939 -5.469486237 -4.547751904
17.63294983 -5.530797005 -4.55378294
17.64642906 -5.594544888 -4.561745167
17.66707039 -5.660796165 -4.5716362
17.67917061 -5.724535942 -4.579354763
17.69195938 -5.788704872 -4.58731699
17.72480011 -5.859705925 -4.600584984
17.74356079 -5.926352978 -4.610235214
17.75746918 -5.99161911 -4.618678093
17.76288986 -6.054207802 -4.624950886
17.77819061 -6.120361805 -4.633876801
17.7868309 -6.184434891 -4.641114235
17.79249001 -6.247654915 -4.647627831
17.80250931 -6.312589169 -4.65534687
17.80863953 -6.376335144 -4.662102222
17.82276917 -6.443147182 -4.671028137
17.82934952 -6.507442951 -4.678023815
17.8329792 -6.570835114 -4.684297085
17.84094048 -6.63600111 -4.691774845
17.84502029 -6.699913979 -4.698288918
17.84980011 -6.764256954 -4.705043793
17.8543396 -6.828692913 -4.711799145
17.85593987 -6.892172813 -4.717830181
17.86002922 -6.956782818 -4.724585056
17.85396004 -7.017578125 -4.728685856
17.85309029 -7.08054781 -4.734233856
17.84300041 -7.139973164 -4.737370014
17.83810997 -7.201582909 -4.74195385
18.06848907 -7.359124184 -4.809743881
17.93604088 -7.433815002 -4.786343098
18.34642029 -4.951941013 -4.807126999
18.1470108 -4.957883835 -4.758434772
18.05979919 -4.993646145 -4.739402771
17.99121094 -5.034142971 -4.725315094
18.00177956 -5.096708775 -4.732234955
17.82024956 -5.104409218 -4.688240051
17.66584015 -5.118865967 -4.65141201
17.62030029 -5.164317131 -4.643502235
17.58950996 -5.213943958 -4.639546871
17.59198952 -5.273448944 -4.644491196
17.58407021 -5.329926014 -4.646716118
17.58987045 -5.390664101 -4.652647018
17.59547043 -5.451487064 -4.658578873
17.61286926 -5.516160011 -4.667725086
17.62080956 -5.578066826 -4.674397945
17.64145088 -5.644208908 -4.684532166
17.66830063 -5.712617874 -4.696395874
17.67647934 -5.775224209 -4.703317165
17.69916916 -5.842794895 -4.714191914
17.6977005 -5.902586937 -4.718640804
17.71623993 -5.969233036 -4.728528023
17.72903061 -6.034173965 -4.736931801
17.74250984 -6.099565983 -4.745583057
17.75666046 -6.165413857 -4.754480839
17.76509094 -6.229483128 -4.761896133
17.77420998 -6.293983936 -4.769557953
17.78401947 -6.358926773 -4.777466774
17.79177094 -6.42332983 -4.784883022
17.79655075 -6.486845016 -4.791555882
17.81020927 -6.553796768 -4.800701141
17.81273079 -6.616844177 -4.806879997
17.81775093 -6.680988789 -4.813800812
17.82164001 -6.744884014 -4.820475101
17.82621002 -6.809209824 -4.827394962
17.82873917 -6.872931957 -4.833821774
17.8328495 -6.937436104 -4.840743065
17.83312988 -7.000611782 -4.846673965
17.82689095 -7.061357975 -4.850875854
17.81863022 -7.1214118 -4.854584217
17.83175087 -7.190178871 -4.864223003
18.01514053 -7.328476906 -4.920825005
17.9109993 -7.350231171 -4.898333073
17.89193916 -7.406630039 -4.899321079
18.37305069 -4.964230061 -4.931316853
18.17295074 -4.970034122 -4.881274223
18.01680946 -4.986789227 -4.843109131
17.95578003 -5.029253006 -4.830725193
17.86486053 -5.062945843 -4.81025219
17.80739021 -5.10573101 -4.798879147
17.59929085 -5.104545116 -4.74656105
17.59375954 -5.161509991 -4.749341011
17.58247948 -5.216838837 -4.750605106
17.58214951 -5.275485039 -4.754900932
17.56866074 -5.330244064 -4.755659103
17.58366966 -5.393765926 -4.764253139
17.58460045 -5.453132153 -4.76905489
17.59824944 -5.516605854 -4.777394772
17.61260986 -5.580508232 -4.785988808
17.63318062 -5.646615028 -4.796350956
17.64339066 -5.709623814 -4.803934097
17.64878082 -5.771245003 -4.81025219
17.66865921 -5.837809086 -4.820614815
17.6846199 -5.903324127 -4.829967022
17.70126915 -5.969301224 -4.839570999
17.7103405 -6.032939911 -4.847153187
17.72102928 -6.09732008 -4.855240822
17.74154091 -6.165316105 -4.866108894
17.74535942 -6.227726936 -4.872426987
17.75900078 -6.293776035 -4.881525993
17.7723999 -6.359967232 -4.890625
17.78010941 -6.424325943 -4.898208141
17.79030991 -6.489787102 -4.906548023
17.7966404 -6.554032803 -4.91387701
17.79640007 -6.616018772 -4.919437885
17.79776001 -6.678744793 -4.925504208
17.80794907 -6.744968891 -4.934096813
17.81156921 -6.808899879 -4.94092083
17.81497002 -6.872917175 -4.947744846
17.81904984 -6.93736887 -4.954822063
17.81479073 -6.998725891 -4.959623814
17.82291985 -7.065114975 -4.967965126
17.81193924 -7.124073982 -4.97099781
17.84922028 -7.202582836 -4.987679005
17.97220039 -7.316411972 -5.028624058
19.0598793 -4.894260883 -5.221320152
18.34830093 -4.952338219 -5.041275978
18.18950081 -4.969400883 -5.001494884
18.0680294 -4.995833874 -4.972046852
18.16238976 -5.081956863 -5.002528191
17.89666939 -5.066868782 -4.933042049
17.79652977 -5.097546101 -4.909534931
17.63233948 -5.109106064 -4.868206024
17.60268021 -5.159101009 -4.864330769
17.59233093 -5.214727879 -4.865880013
17.58919907 -5.27256012 -4.869496822
17.58958054 -5.331542015 -4.874146938
17.59069061 -5.390858173 -4.879055023
17.6091404 -5.455664158 -4.888871193
17.61628914 -5.517168999 -4.895586014
17.62598991 -5.579642773 -4.903078079
17.6327095 -5.641345978 -4.909793854
17.6373806 -5.702548027 -4.915994167
17.6491909 -5.766232014 -4.924260139
17.6653595 -5.831555843 -4.93381691
17.68586922 -5.898561001 -4.944665909
17.70339966 -5.964821815 -4.954741001
17.71884918 -6.030623913 -4.964297771
17.73224068 -6.095948219 -4.973339081
17.73991966 -6.159510136 -4.980830193
17.75284958 -6.225093842 -4.989871025
17.76280975 -6.289846897 -4.998136997
17.78527069 -6.359273911 -5.010018826
17.78384972 -6.420370102 -5.015185833
17.79766083 -6.487140179 -5.024744034
17.7912693 -6.546714783 -5.028617859
17.80098915 -6.612368107 -5.0371418
17.83670044 -6.687976837 -5.053157806
17.79982948 -6.736513138 -5.048508167
17.81337929 -6.804189205 -5.05832386
17.82126045 -6.869925976 -5.066589832
17.82711029 -6.935076237 -5.074338913
17.83721924 -7.002089977 -5.083380222
17.83182907 -7.063185215 -5.088029861
17.83160019 -7.126462936 -5.094230175
17.83742905 -7.192335129 -5.102237225
18.0041008 -7.323829174 -5.156742096
19.35115051 -4.781335831 -5.412586212
19.28866959 -4.828738213 -5.39912796
19.16905022 -4.861341953 -5.369575024
19.02231979 -4.886300087 -5.332367897
18.91201973 -4.919873238 -5.305452824
18.73734093 -4.935864925 -5.260331154
18.6447506 -4.972701073 -5.238430023
18.39473915 -4.966534138 -5.171934128
18.18959999 -4.971083164 -5.118103981
18.04783058 -4.991901875 -5.082217216
17.97763062 -5.03191185 -5.066648006
17.89991951 -5.069437981 -5.048968792
17.83050919 -5.108922958 -5.033664227
17.62018967 -5.107224941 -4.97825098
17.59333038 -5.158002853 -4.975083828
17.58112907 -5.213050842 -4.976140022
17.57613945 -5.270287991 -4.979306221
17.58481026 -5.331740856 -4.986431122
17.5821991 -5.389904976 -4.99038887
17.60058975 -5.454668999 -5.000415802
17.60403061 -5.514984131 -5.006220818
17.61553001 -5.577991009 -5.014400959
17.61395073 -5.637005806 -5.018887043
17.61860085 -5.698141098 -5.025219917
17.63129044 -5.762053013 -5.033927917
17.65749931 -5.83063221 -5.046594143
17.6733799 -5.89606905 -5.056356907
17.67715073 -5.957653999 -5.062689781
17.70443916 -6.027400017 -5.075883865
17.7168808 -6.092350006 -5.084856033
17.72270966 -6.155219078 -5.09197998
17.7474308 -6.224884033 -5.104646206
17.74461937 -6.285098076 -5.109395981
17.75704002 -6.350874901 -5.118630886
17.76378059 -6.414822102 -5.126284122
17.77029991 -6.478869915 -5.133935928
17.77930069 -6.544017792 -5.142380238
17.7835598 -6.607603073 -5.149504185
17.78577995 -6.670597076 -5.156101227
17.79500008 -6.736399174 -5.164809227
17.80307961 -6.801976204 -5.173253059
17.80192947 -6.864195824 -5.179058075
17.80954933 -6.929971218 -5.187501907
17.82681084 -6.999733925 -5.198849201
17.83305931 -7.065404892 -5.207028866
17.83009911 -7.127600193 -5.21257019
17.82246971 -7.18803978 -5.216792107
18.02100945 -7.332461834 -5.28196907
19.41877937 -4.792951107 -5.555231094
19.33953094 -4.836380005 -5.536640167
19.2116394 -4.86706686 -5.504039764
19.05389977 -4.889354229 -5.462818146
18.80487061 -4.886975765 -5.3951931
18.63891983 -4.904932976 -5.351545811
18.53910065 -4.939526081 -5.327027798
18.40391922 -4.964021206 -5.292273045
18.27990913 -4.990777016 -5.260749817
18.07329941 -4.993987083 -5.205248833
17.95586967 -5.020878792 -5.175611973
17.85699081 -5.052340984 -5.15136385
17.70159912 -5.067074776 -5.110681057
17.62030029 -5.102336884 -5.091551781
17.58700943 -5.151226997 -5.08643198
17.56926918 -5.204611778 -5.085894108
17.56245041 -5.26125288 -5.088588238
17.56373024 -5.32041502 -5.093707085
17.57126999 -5.381608009 -5.100711823
17.58135033 -5.443752766 -5.108524799
17.58938026 -5.50543499 -5.115799904
17.59903908 -5.567798138 -5.123612881
17.60021973 -5.627632141 -5.129002094
17.60853004 -5.689895153 -5.136546135
17.61661911 -5.752262115 -5.144089222
17.63364029 -5.817749977 -5.154326916
17.64311981 -5.880959034 -5.162409782
17.66332054 -5.947969913 -5.173726082
17.67234039 -6.011437893 -5.181807995
17.68659973 -6.076895237 -5.191507816
17.69516945 -6.140601158 -5.19959116
17.71077919 -6.206965923 -5.209828854
17.72524071 -6.273161888 -5.219798088
17.73311996 -6.337236881 -5.227880001
17.73805046 -6.400438786 -5.235155106
17.74909973 -6.466038227 -5.244315147
17.75810051 -6.531099796 -5.25293684
17.76054955 -6.593931198 -5.259672165
17.7772007 -6.662247181 -5.270719051
17.77739906 -6.724593163 -5.276916027
17.78457069 -6.789752007 -5.285266876
17.79331017 -6.855709076 -5.294157982
17.80451012 -6.922832012 -5.303857803
17.81635094 -6.990438938 -5.313827038
17.82348061 -7.05641222 -5.322447777
17.82410049 -7.11999321 -5.329184055
17.83344078 -7.187243938 -5.338613987
17.87553024 -7.268042088 -5.358012199
19.44210052 -4.807600975 -5.687019825
19.35918045 -4.850166798 -5.666946888
19.15410042 -4.86128521 -5.610854149
18.96030998 -4.874062061 -5.558061123
18.77779007 -4.888604164 -5.508566856
18.60930061 -4.90574789 -5.463197231
18.5328598 -4.946453094 -5.445049763
18.39879036 -4.971185207 -5.409853935
18.25824928 -4.993364811 -5.37273407
18.08717918 -5.006267071 -5.32653904
18.0152607 -5.045915127 -5.309765816
17.86278915 -5.062358856 -5.269071102
17.80096054 -5.103887081 -5.255322933
17.59777069 -5.104103088 -5.199504852
17.57373047 -5.155632019 -5.197030067
17.56888962 -5.212806225 -5.200329781
17.56385994 -5.269998074 -5.203629017
17.55220985 -5.325253963 -5.205004215
17.56612968 -5.388382912 -5.21407795
17.57155037 -5.449085236 -5.220676899
17.57769012 -5.510159016 -5.227550983
17.58270073 -5.571031094 -5.234149933
17.60032082 -5.636089802 -5.244598866
17.61038017 -5.698942184 -5.252848148
17.62297058 -5.762804985 -5.261921883
17.63715935 -5.827402115 -5.271545887
17.64747047 -5.890923023 -5.280069828
17.65118027 -5.952411175 -5.286668777
17.66287041 -6.016767025 -5.295742989
17.67251015 -6.080625057 -5.30426693
17.67738914 -6.143021107 -5.311416149
17.69021034 -6.208370209 -5.321040154
17.70461082 -6.274497032 -5.331212997
17.72057915 -6.34141922 -5.341937065
17.73088074 -6.40653801 -5.351010799
17.73913956 -6.471119881 -5.359535217
17.74897957 -6.536478043 -5.368608952
17.76037979 -6.602626801 -5.378232956
17.77154922 -6.668907166 -5.387856007
17.7797699 -6.734295845 -5.396656036
17.78686905 -6.79945612 -5.405179977
17.8053894 -6.86921978 -5.417277813
17.80574036 -6.932186127 -5.423876762
17.8148098 -6.998733997 -5.433226109
17.83168983 -7.068593025 -5.445049763
17.82509995 -7.12933588 -5.449724197
17.83433914 -7.196581841 -5.459348202
18.00363922 -7.329207897 -5.518465996
18.11639023 -7.570223808 -5.574559212
19.48451996 -4.80897522 -5.827844143
19.38215065 -4.846844196 -5.80146122
19.17366028 -4.857263088 -5.743083
19.0452404 -4.886962891 -5.708840847
18.83507919 -4.894678116 -5.649900913
18.67889023 -4.915317059 -5.6072402
18.54500961 -4.940972805 -5.571314812
18.39909935 -4.962605 -5.531741142
18.21990013 -4.97428894 -5.482062817
18.16847038 -5.020195007 -5.47111702
17.97550964 -5.026288986 -5.417229176
17.86395073 -5.05424118 -5.388039112
17.73394012 -5.076272964 -5.353237152
17.62424088 -5.103427887 -5.324608803
17.59745026 -5.154236794 -5.321239948
17.58064079 -5.207928181 -5.320960045
17.57468987 -5.264870167 -5.324047089
17.57315063 -5.323215008 -5.328537941
17.57325935 -5.382163048 -5.333590031
17.57500076 -5.441729069 -5.339202881
17.58204079 -5.503076077 -5.34649992
17.59984016 -5.56799221 -5.357165813
17.60552979 -5.629269123 -5.364181995
17.62562943 -5.695353985 -5.375689983
17.64730072 -5.762210846 -5.387759209
17.6532402 -5.824143887 -5.395055771
17.65714073 -5.885560036 -5.401792049
17.6699295 -5.950117111 -5.411334991
17.66976929 -6.010480881 -5.416947842
17.67394066 -6.072459221 -5.423964977
17.69874954 -6.141756058 -5.437437057
17.70428085 -6.204596996 -5.445014
17.71139908 -6.268168926 -5.453154087
17.73456955 -6.337656975 -5.466344833
17.73851013 -6.40050602 -5.473642826
17.75036049 -6.466393948 -5.483466148
17.76195908 -6.532415867 -5.493288994
17.77873039 -6.600574017 -5.504796982
17.77458 -6.661149979 -5.509849072
17.79445076 -6.730929852 -5.522479057
17.80331039 -6.796786785 -5.531741142
17.8173008 -6.864831924 -5.542685986
17.82209969 -6.929549217 -5.550826073
17.83650017 -6.998216152 -5.562053204
17.83012009 -7.058909893 -5.566823959
17.83333015 -7.123548031 -5.574683189
17.8523407 -7.194728851 -5.587593079
17.97333908 -7.307663918 -5.632781029
19.46620941 -4.81335783 -5.940831184
19.34910011 -4.847446918 -5.909387112
19.19388008 -4.871200085 -5.866221905
19.0544796 -4.898100853 -5.827918053
18.79639053 -4.893299103 -5.753024101
18.71456909 -4.933359146 -5.732441902
18.55397987 -4.951963902 -5.687561989
18.35090065 -4.958136082 -5.629533768
18.21821976 -4.982316017 -5.593229771
18.11234093 -5.013138771 -5.565217018
18.01750946 -5.046462059 -5.540633202
17.82769012 -5.052342892 -5.486606121
17.69787979 -5.074271202 -5.451159954
17.60767937 -5.106926918 -5.428006172
17.56710052 -5.153639793 -5.420288086
17.56315041 -5.211053848 -5.424004078
17.56543922 -5.270419121 -5.429720879
17.5629406 -5.328456879 -5.434009075
17.56757927 -5.388775826 -5.440583229
17.58209038 -5.45229578 -5.450303078
17.58814049 -5.513376236 -5.457448959
17.59489059 -5.574832916 -5.464880943
17.61055946 -5.639306068 -5.475172043
17.6232605 -5.703042984 -5.484604836
17.64484978 -5.769886971 -5.496897221
17.65435982 -5.83301115 -5.505473137
17.65184021 -5.892303944 -5.510332108
17.6618309 -5.955922127 -5.519194126
17.66342926 -6.016876221 -5.525483131
17.67297935 -6.080700874 -5.534344196
17.69226074 -6.148101807 -5.546350002
17.69952965 -6.211553097 -5.554639816
17.71200943 -6.277026176 -5.564644814
17.72244072 -6.34198904 -5.574078083
17.73443985 -6.407725811 -5.58408308
17.74440956 -6.472939968 -5.593515873
17.75503922 -6.538606167 -5.603234768
17.76902962 -6.605733871 -5.614098072
17.77919006 -6.671661854 -5.623816967
17.79447937 -6.739750862 -5.635251045
17.8014698 -6.804917812 -5.644113064
17.80554008 -6.869155884 -5.652115822
17.81475067 -6.935567856 -5.661836147
17.83173943 -7.005255222 -5.674128056
17.83242989 -7.068756104 -5.681273937
17.84892082 -7.138731003 -5.693564892
17.91135979 -7.227518082 -5.720722198
17.92461014 -7.296885014 -5.7321558
17.99193001 -7.453301907 -5.768459797
19.41430092 -4.858681202 -6.050896168
19.2064209 -4.869307995 -5.990324974
18.9625206 -4.86942482 -5.918397903
18.82899094 -4.896749973 -5.88112402
18.68898964 -4.921597004 -5.841812134
18.27699089 -4.933197021 -5.721545219
18.23870087 -4.982942104 -5.71426487
18.10253906 -5.005466938 -5.676116943
17.98851967 -5.033391953 -5.644958019
17.87818909 -5.061707973 -5.614964008
17.83131027 -5.10757494 -5.605063915
17.62535095 -5.107131004 -5.544785023
17.57379913 -5.150684834 -5.533428192
17.55883026 -5.204847813 -5.533719063
17.55927086 -5.263638973 -5.53895998
17.55586052 -5.321371078 -5.543036938
17.56232071 -5.382215977 -5.550317764
17.56491089 -5.442018032 -5.556433201
17.57917023 -5.50560379 -5.566333771
17.58864975 -5.567884922 -5.574779034
17.60975075 -5.634066105 -5.587008953
17.61968994 -5.69689703 -5.595745087
17.64031982 -5.76340723 -5.60797596
17.63891029 -5.822897911 -5.613216877
17.65090942 -5.886977196 -5.622827053
17.65542984 -5.948739052 -5.630106926
17.6633606 -6.011817932 -5.638552189
17.66744995 -6.073757172 -5.645832062
17.67494011 -6.137032986 -5.654276848
17.69033051 -6.203260899 -5.665342808
17.69916916 -6.267405987 -5.674369812
17.71048927 -6.332630157 -5.684270859
17.7260704 -6.399607182 -5.695628166
17.72971916 -6.462479115 -5.70319891
17.73944092 -6.527747154 -5.712809086
17.74802017 -6.592802048 -5.722126961
17.76085091 -6.659649849 -5.73290205
17.77255058 -6.726301193 -5.743384838
17.79026031 -6.79547596 -5.755907059
17.79610062 -6.860349178 -5.764643192
17.79903984 -6.924280167 -5.772506237
17.79018021 -6.983748913 -5.776581764
17.81669998 -7.057322979 -5.7923069
17.82517052 -7.124023914 -5.802207947
17.82008934 -7.185475826 -5.807741165
17.8830204 -7.274724007 -5.835697174
19.39612961 -4.792642117 -6.17034483
19.34243011 -4.842384815 -6.157876015
19.19418907 -4.867897987 -6.115126133
18.96829033 -4.872588158 -6.047439098
18.97912979 -4.93749094 -6.055750847
18.60560989 -4.901305199 -5.940564156
18.40226936 -4.908156872 -5.880001068
18.26082039 -4.930487156 -5.839328766
18.18388939 -4.969618797 -5.819437981
18.07836914 -5.000433922 -5.790345192
17.98752975 -5.034766197 -5.766001225
17.90953064 -5.07223177 -5.745812893
17.80575943 -5.101901054 -5.717313766
17.59375 -5.099608898 -5.653781891
17.55969048 -5.148189068 -5.647844791
17.55205917 -5.204481125 -5.650516987
17.55154991 -5.262968063 -5.655563831
17.54537964 -5.319839001 -5.658829212
17.54814911 -5.379519939 -5.665062904
17.56257057 -5.44294405 -5.675158024
17.58223915 -5.508218765 -5.687032223
17.59439087 -5.571360111 -5.696531773
17.60359001 -5.633753777 -5.705142021
17.6107502 -5.695669174 -5.713157177
17.62495995 -5.760054111 -5.723547935
17.63895035 -5.824580193 -5.733939171
17.64545059 -5.886827946 -5.74195385
17.65265083 -5.949475765 -5.750267029
17.65690994 -6.011300087 -5.757688999
17.68804932 -6.082521915 -5.774016857
17.66299057 -6.13456583 -5.771938801
17.67111969 -6.198208809 -5.780845165
17.68261909 -6.263235092 -5.790937901
17.69210052 -6.327745914 -5.800437927
17.70314026 -6.393023014 -5.810532093
17.71663094 -6.459409237 -5.821516991
17.71554947 -6.520659924 -5.82775116
17.73574066 -6.589947224 -5.841110229
17.76641083 -6.663444042 -5.858032227
17.74766922 -6.718595982 -5.858625889
17.75373077 -6.783237934 -5.867531776
17.93508911 -6.91566515 -5.934923172
17.79631996 -6.924943924 -5.895734787
17.80521011 -6.991376877 -5.905828953
17.82274055 -7.061447144 -5.918890953
17.89053917 -7.151896 -5.948875904
17.95619011 -7.24211216 -5.978267193
17.95495987 -7.499088764 -6.00825119
17.91074944 -7.545240879 -6.001125813
19.40509033 -4.789372921 -6.29534483
19.38752937 -4.848190784 -6.294437885
19.14986992 -4.85123682 -6.221607208
18.95853996 -4.864716053 -6.16388607
18.8217392 -4.891211987 -6.123994827
18.69602013 -4.919825077 -6.087730885
18.54820061 -4.941823959 -6.044212818
18.34612083 -4.948317051 -5.98286581
18.19107056 -4.966421127 -5.936931133
18.07283974 -4.993773937 -5.903083801
17.94268036 -5.017113209 -5.865308762
17.89327049 -5.062534809 -5.85412693
17.7136097 -5.070454121 -5.800033092
17.60091019 -5.096673012 -5.768000126
17.59983063 -5.154933929 -5.772834778
17.56657028 -5.203762054 -5.767093182
17.56056023 -5.260639191 -5.770417213
17.5607605 -5.319464207 -5.775856972
17.56349945 -5.37917614 -5.782203197
17.57150078 -5.440647125 -5.790361881
17.5956707 -5.507341862 -5.803962231
17.59322929 -5.565898895 -5.808796883
17.60421944 -5.628847122 -5.818164825
17.62677956 -5.695724964 -5.831461906
17.71977043 -5.785871983 -5.868330956
17.63133049 -5.816914082 -5.844758987
17.64233971 -5.880623817 -5.854430199
17.71093941 -5.963923931 -5.883440971
17.70879936 -6.023757935 -5.888881207
17.76416016 -6.103456974 -5.913661003
17.79217911 -6.174178123 -5.929376125
17.78395081 -6.232516766 -5.933001995
17.83934021 -6.313443184 -5.958086014
17.84329987 -6.438313007 -5.972590923
17.96578026 -6.858810902 -6.055395126
17.92775917 -6.907384872 -6.049653053
17.9038105 -6.961318016 -6.048747063
17.91077042 -7.027353764 -6.058416843
17.89975929 -7.086481094 -6.062044144
17.98151016 -7.182734013 -6.097401142
18.17247009 -7.323735237 -6.170231819
19.40908051 -4.795646191 -6.41621685
19.28166008 -4.826982975 -6.378719807
19.12101936 -4.849164009 -6.330156803
18.93370056 -4.86354208 -6.27268219
18.84132957 -4.90148592 -6.246863842
18.69001007 -4.923399925 -6.201375008
18.58287048 -4.956200123 -6.170639038
18.35075951 -4.9546628 -6.098103046
18.23082924 -4.982347012 -6.063065052
18.11639977 -5.010862827 -6.029870033
17.94790077 -5.02359581 -5.978540897
17.8866291 -5.065672874 -5.963172913
17.84539032 -5.113186836 -5.954566956
17.61208916 -5.104876041 -5.881416798
17.57168961 -5.151658058 -5.873117924
17.57040024 -5.209869862 -5.878036022
17.55524063 -5.264023781 -5.878343105
17.55357933 -5.322275162 -5.883261204
17.55355072 -5.381123066 -5.888792992
17.58239937 -5.449032784 -5.904160976
17.56468964 -5.502665043 -5.90385294
17.6076107 -5.575481892 -5.924139023
17.62667084 -5.641075134 -5.936432838
17.6427803 -5.705958843 -5.947804928
17.68308067 -5.77897501 -5.967475891
17.68605042 -5.840060234 -5.974545002
17.72492027 -5.913260937 -5.993908882
17.85368919 -6.017140865 -6.044007778
17.8828907 -6.088139057 -6.060297966
17.80203056 -6.1216259 -6.03909111
17.84789085 -6.19868803 -6.061220169
17.82699966 -6.252785206 -6.060606003
17.84450912 -6.320471764 -6.073206902
17.78470993 -6.360771179 -6.059375763
17.85909081 -6.449234009 -6.091649055
17.87677002 -6.517683029 -6.104557991
17.91116905 -6.592544079 -6.123305798
17.92386055 -6.659725189 -6.134677887
17.90690994 -6.716020107 -6.135908127
17.90490913 -6.777998924 -6.142363071
17.93380928 -6.851914883 -6.159574986
17.92159081 -6.910326004 -6.162648201
17.94021034 -6.980802059 -6.176478863
17.95590973 -7.050415039 -6.189387798
19.31282043 -4.766790867 -6.514304161
19.24467087 -4.812653065 -6.496150017
19.1202507 -4.843908787 -6.458902836
18.93511009 -4.858864784 -6.400999069
18.82728004 -4.892800808 -6.369386196
18.79656982 -4.946428776 -6.36406517
18.58583069 -4.95197916 -6.297396183
18.50819016 -4.992153168 -6.276113033
18.3031292 -4.997119904 -6.211321831
18.08266068 -4.996574879 -6.141210079
17.94467926 -5.017748833 -6.09926796
17.7793293 -5.03036499 -6.047936916
17.71998978 -5.072339058 -6.032913208
17.55656052 -5.083874226 -5.982206821
17.52264977 -5.132371902 -5.975946903
17.56782913 -5.204185009 -5.996918201
17.5508709 -5.257784843 -5.996604919
17.54101944 -5.313532829 -5.998795986
17.54188919 -5.372609138 -6.004743099
17.59700012 -5.448597908 -6.029469967
17.61735916 -5.514194012 -6.042303085
17.65287971 -5.584836006 -6.06045723
17.66370964 -5.647936821 -6.070158958
17.65984917 -5.706482887 -6.074853897
17.68469048 -5.774494171 -6.089566231
17.67771912 -5.832293987 -6.093320847
17.71199989 -5.903923988 -6.111474991
17.7469101 -5.976121902 -6.12994194
17.77704048 -6.047060013 -6.14684391
17.83923912 -6.129351139 -6.175014019
17.85625076 -6.196508884 -6.187533855
17.91153908 -6.277338982 -6.213512897
17.80714035 -6.302153111 -6.183777809
17.81277084 -6.365705967 -6.192542076
17.88516998 -6.453533173 -6.224781036
17.89205933 -6.518127918 -6.23416996
17.89266968 -6.705526829 -6.255766869
17.94540977 -6.914320946 -6.296456814
17.90995026 -6.963836193 -6.29144907
18.93168068 7.844595909 -6.839108944
18.98163033 7.593727112 -6.822875977
18.97928047 7.525323868 -6.813644886
19.28594017 -4.765412807 -6.628715038
19.20318031 -4.807520866 -6.605160236
19.12401009 -4.850099087 -6.58288002
18.99060059 -4.878318787 -6.541819096
18.90398026 -4.91794014 -6.516992092
18.93189049 -4.987264156 -6.531951904
18.27890968 -4.995588779 -6.320920944
18.0780201 -5.000338078 -6.256306171
17.94665909 -5.023323059 -6.215881824
17.82535934 -5.048390865 -6.178959846
17.78973007 -5.097310066 -6.171957016
17.61285019 -5.105146885 -6.115619183
17.66350937 -5.178629875 -6.13885498
17.65048027 -5.351709843 -6.151268005
17.67465973 -5.656500816 -6.189464092
17.65722084 -5.710700035 -6.189464092
17.74337959 -5.85906601 -6.232433796
17.72711945 -5.914073944 -6.233069897
17.75061989 -6.043206215 -6.254395962
17.77412987 -6.11212492 -6.269357204
17.89499092 -6.215148926 -6.319011211
17.91609955 -6.284142017 -6.333333969
17.84132957 -6.319452763 -6.313600063
17.86292076 -6.388845921 -6.328240871
18.88244057 8.095284462 -6.972386837
18.92736053 7.773050785 -6.943954945
18.98521042 7.391410828 -6.913908005
19.01575089 7.336195946 -6.916816235
19.29847908 -4.770205021 -6.74525404
19.19286919 -4.806631088 -6.713267803
19.06612968 -4.837100983 -6.673851013
19.0026207 -4.883090019 -6.656726837
18.96190071 -4.93469286 -6.647679806
18.88536072 -4.976687908 -6.626032829
17.96822929 -4.971614838 -6.32329607
17.85993004 -5.000692844 -6.2903409
17.8299408 -5.051335812 -6.285171986
17.75885963 -5.090108871 -6.265462875
17.67863083 -5.12585783 -6.242523193
17.70005035 -5.190989971 -6.255770206
17.74039078 -5.321248055 -6.281617165
17.83898926 -5.410531044 -6.322649956
17.82049942 -5.464680195 -6.322003841
17.77059937 -5.74904108 -6.334928036
17.7152195 -5.851440907 -6.327818871
18.96598053 7.726909161 -7.078065872
18.90517998 7.567211151 -7.037675858
19.2846508 -4.761341095 -6.863966942
19.36067009 -4.843170166 -6.896475792
19.14245987 -4.851046085 -6.823576927
19.04056931 -4.88744688 -6.792381763
19.01907921 -4.944177151 -6.790082932
18.09066963 -5.000351906 -6.483384132
17.74790001 -5.023052216 -6.370751858
17.71969986 -5.073838234 -6.366155148
17.69043922 -5.124237061 -6.361228943
17.69580078 -5.243687153 -6.374692917
17.73390961 -5.314217091 -6.394394875
17.89742088 -5.42309618 -6.459741116
17.91592026 -5.488767147 -6.472548008
19.08922958 8.187601089 -7.313643932
18.78635979 7.989565849 -7.187465191
18.82032967 7.935921192 -7.191136837
18.80979919 7.863602161 -7.17778492
18.81032944 7.796113968 -7.168772221
18.81671906 7.731204987 -7.162096024
18.82637978 7.667750835 -7.156754971
18.8603096 7.614191055 -7.16076088
18.91070938 7.567146778 -7.1711092
18.95377922 7.31584692 -7.152749062
19.32478905 -4.836274147 -7.012549877
19.31077003 -4.895771027 -7.01288414
19.09206009 -4.902697086 -6.938445091
18.97657967 -4.935142994 -6.9017272
18.39580917 -4.904775143 -6.700107098
18.25351906 -4.986992836 -6.659049034
17.7116394 -5.014544964 -6.476789951
17.68983078 -5.067041874 -6.474453926
17.64160919 -5.111844063 -6.462437153
17.65930939 -5.175755024 -6.474788189
17.6433506 -5.22990799 -6.474788189
17.66604996 -5.29565382 -6.489140987
17.69301987 -5.362956047 -6.505164146
17.74768066 -5.439036846 -6.531535149
18.77763939 7.984051228 -7.308234215
18.80985069 7.929694176 -7.311284065
18.80283928 7.858888149 -7.299083233
18.81642914 7.796844006 -7.295016766
18.82460022 7.732644081 -7.288917065
18.83864975 7.670951843 -7.285189152
18.85511017 7.610302925 -7.282476902
18.87924957 7.552770138 -7.282815933
18.86384964 7.479557037 -7.267903805
18.92169952 7.23507309 -7.255364895
19.01840973 -4.885464191 -7.031351089
18.56048012 -4.889414787 -6.872066975
17.78027916 -5.035624981 -6.614840031
17.69330025 -5.069675922 -6.588067055
17.64694023 -5.115028858 -6.576543808
17.62483978 -5.167292118 -6.57417202
17.62254906 -5.284255981 -6.585356236
17.62335968 -5.343483925 -6.591794014
17.63297081 -5.405523777 -6.601623058
18.8470192 7.60906601 -7.403992176
18.79460907 7.320973873 -7.347233772
18.87058067 -4.845656872 -7.095435143
18.69296074 -4.861228943 -7.03386116
18.50037956 -4.932538986 -6.972288132
18.37999916 -4.960894108 -6.932384968
18.31759071 -5.004393101 -6.914497852
17.82534981 -5.046678066 -6.744912148
17.65723038 -5.057648182 -6.686778069
17.61997986 -5.105525017 -6.67852211
17.65019035 -5.173026085 -6.696065903
17.6081295 -5.219412804 -6.686089993
17.56414986 -5.265051842 -6.675426006
17.53982925 -5.316462994 -6.672329903
17.44625092 -5.463919163 -6.65547514
18.52212906 -4.936543941 -7.094340801
18.18590927 -4.966667175 -6.976412773
17.94389915 -5.019102097 -6.894770145
17.82741928 -5.045551777 -6.855692863
17.72627068 -5.07571888 -6.822547913
17.54318047 -5.081592083 -6.757653236
17.45285988 -5.113523006 -6.728693962
17.35802078 -5.143618107 -6.697990894
17.35302925 -5.258180141 -6.708457947
17.09909058 -5.353559971 -6.628560066
17.04953003 -5.395534992 -6.615651131
16.64639091 -5.324223042 -6.464578152
16.60144043 -5.366045952 -6.45341301
16.62677002 -5.430625916 -6.469810963
16.54862022 -5.46134901 -6.445736885
17.71404076 -5.011885166 -6.928874016
17.69227982 -5.064404964 -6.926395893
17.61467934 -5.100708961 -6.90196085
17.55047989 -5.140528202 -6.882837772
17.24949074 -5.109859943 -6.770226002
17.18535995 -5.14826107 -6.751101971
17.05670929 -5.166791916 -6.706481934
16.58352089 -5.302474022 -6.550665855
16.54356003 -5.401806831 -6.547832966
16.50647926 -5.445796013 -6.53968811
33.24879074 12.93570995 -7.076600075
33.34962845 12.85727978 -7.08970499
33.35594177 12.74230003 -7.082664013
15.36983967 10.97352982 -6.523774147
