# .PCD v0.7 - Point Cloud Data file format
VERSION 0.7
FIELDS x y z
SIZE 4 4 4
TYPE F F F
COUNT 1 1 1
WIDTH 58
HEIGHT 1
VIEWPOINT 0 0 0 1 0 0 0
POINTS 58
DATA ascii
12.39922047 34.3340416 -7.693078995
12.48875046 34.25263977 -7.683339119
14.57201958 30.08099937 -7.23592186
14.65437984 30.01596069 -7.231029987
14.56585026 30.08989906 -7.457289219
24.87665939 -40.372509 -5.918920994
24.75687981 -41.88526917 -6.073850155
24.57382965 -40.14012909 -6.166307926
24.59148026 -40.72809982 -6.233748913
24.62293053 -41.06439972 -6.273872852
24.59251976 -41.59019852 -6.331380844
25.39800072 -38.78356934 -6.345111847
25.07246017 -38.80387878 -6.323013783
24.92119026 -38.83060074 -6.314829826
24.80301094 -38.90853882 -6.315103054
24.68298912 -38.98361969 -6.314966202
24.6624794 -41.15221024 -6.567728996
24.57917023 -41.3000412 -6.579322815
25.0050602 -38.70470047 -6.593472958
24.88191986 -38.77457047 -6.592333794
24.7553997 -38.83903885 -6.590340137
24.63348007 -38.91062927 -6.589626789
25.18294907 -38.46532059 -6.865378857
25.05834961 -38.53245163 -6.863596916
23.79006004 -30.47369957 -6.729210854
30.96632957 -28.06941032 -5.716547966
30.91576958 -27.85477066 -5.950710773
30.88516998 -27.99934006 -5.961394787
30.85658073 -27.63385963 -6.181537151
30.81572914 -27.76811981 -6.190446854
30.78095055 -27.90835953 -6.200694084
24.26923943 -29.2081604 -6.12549305
24.17951012 -29.28248024 -6.12549305
24.41827965 -29.02713966 -6.356424809
24.85957909 -26.75445938 -6.79562521
24.79006004 -26.8443203 -6.799119949
24.05323029 -27.02806091 -6.73197794
15.26218033 28.97135925 -7.088102818
40.74332047 -8.765942574 -3.645220995
40.64868927 -8.8639431 -3.902378082
40.61925888 -8.875021935 -4.141541004
40.68048096 -8.604445457 -4.413146019
40.85129929 -8.784375191 -4.944506168
39.86227036 -9.339921951 -5.599101067
39.81222153 -9.457136154 -5.596099854
39.78108978 -9.578770638 -5.595828056
40.73126984 -9.28293705 -5.974073887
39.92145157 -9.227311134 -5.858685017
39.88235092 -9.347260475 -5.85711813
39.82749176 -9.463396072 -5.853271008
40.03532028 -9.256262779 -6.131937981
39.90755844 -9.355799675 -6.116641998
39.91138077 -9.485963821 -6.121692181
39.94361877 -9.623188019 -6.131196022
39.99980164 -9.225451469 -6.389591217
39.98957825 -9.352399826 -6.392530918
39.9347496 -9.468887329 -6.388352871
40.06047058 -9.256804466 -6.635331154
