# .PCD v0.7 - Point Cloud Data file format
VERSION 0.7
FIELDS x y z
SIZE 4 4 4
TYPE F F F
COUNT 1 1 1
WIDTH 84
HEIGHT 1
VIEWPOINT 0 0 0 1 0 0 0
POINTS 84
DATA ascii
14.9674902 30.44383049 -6.942730904
14.5954504 30.12936974 -7.247620106
14.65137959 30.00980949 -7.229540825
14.6538496 30.27170944 -7.502584934
14.62500954 30.20067024 -7.694746971
14.69581032 30.3416996 -7.92956686
24.45896912 -36.6099205 -6.02414608
24.34184074 -36.92308044 -6.05115509
24.4728508 -38.39062119 -6.230529785
24.37879944 -38.50318909 -6.236669064
25.61945915 -35.45359039 -6.256991863
25.46785927 -35.47253036 -6.246449947
24.48764992 -35.93716812 -6.220380783
24.46495056 -36.14162827 -6.242888927
24.39702988 -36.28059006 -6.254000187
24.37027931 -36.48200989 -6.275938988
24.35675049 -36.70505905 -6.301580906
24.31430054 -36.88621902 -6.31995821
24.32789993 -37.15441132 -6.353291988
24.39134979 -37.50186157 -6.400159836
24.40884972 -37.78186035 -6.43534708
24.41309929 -38.04399872 -6.467400074
25.48134041 -35.26700974 -6.495019913
25.32341957 -35.2759285 -6.482248783
25.14789009 -35.25925827 -6.464875221
25.00585938 -35.28863907 -6.456112862
24.86617088 -35.32072067 -6.447946072
24.73558044 -35.36523819 -6.442153931
24.62978935 -35.44501877 -6.442896843
24.41464043 -35.59955978 -6.443638802
24.33202934 -35.71352005 -6.45076704
24.26613998 -35.85269928 -6.462499142
24.26584053 -36.09027863 -6.492050171
24.38845062 -36.51404953 -6.555161953
24.29326057 -36.61425018 -6.559765816
24.32653046 -37.15726852 -6.630599976
24.33427048 -37.41907883 -6.664162159
24.48311043 -35.42517853 -6.704736233
24.38102913 -35.50989914 -6.706593037
24.28811073 -35.60820007 -6.711080074
31.3466301 -29.46929932 -5.633577824
24.04211998 -27.01557922 -6.728849888
27.3074398 4.562417984 -6.678386211
27.31748009 4.477989197 -6.677443027
27.37841034 5.091955185 -6.882515907
27.27627945 4.727416039 -6.841505051
27.2530899 4.551328182 -6.828476906
27.28894997 4.471304893 -6.83402586
27.34852982 4.394956112 -6.84560585
27.35421944 4.309823036 -6.84367609
27.36635017 4.225732803 -6.843433857
27.3830204 4.142334938 -6.844398975
27.40616035 4.059869766 -6.847053051
27.44058037 3.978974104 -6.852602005
27.29737091 4.56964922 -7.019776821
27.29692078 4.483524799 -7.016068935
27.32106972 4.401453018 -7.018787861
27.31529999 4.314589977 -7.013844013
27.33798027 4.232248783 -7.016315937
27.4274807 4.159977913 -7.036089897
20.46649933 9.916603088 -6.881698132
15.27083015 28.98778915 -7.092144012
40.75695038 -8.768876076 -3.646452904
40.77027893 -8.890455246 -3.914163113
40.74757004 -8.903053284 -4.154743195
40.80498886 -8.630786896 -4.42677021
40.77442932 -8.755098343 -4.426343918
40.71609116 -8.760083199 -4.670388222
38.47426987 7.525625229 -4.636655807
38.33531952 7.376404762 -4.617001057
40.73770905 -8.759952545 -4.930653095
40.90394974 -8.793036461 -5.722549915
39.74378967 -9.440880775 -5.586414814
40.85276031 -8.784690857 -5.975640774
40.82852173 -8.910617828 -5.97606802
39.85536957 -9.340936661 -5.85312891
39.81978989 -9.461565971 -5.85213089
40.03821182 -9.256931305 -6.132383823
39.98265839 -9.373403549 -6.128225803
39.96718979 -9.499225616 -6.130304813
40.0623703 -9.239884377 -6.399647236
40.02806091 -9.361400604 -6.398718834
40.00492096 -9.485527992 -6.399647236
40.04228973 -9.511789322 -6.641900063
