# .PCD v0.7 - Point Cloud Data file format
VERSION 0.7
FIELDS x y z
SIZE 4 4 4
TYPE F F F
COUNT 1 1 1
WIDTH 61
HEIGHT 1
VIEWPOINT 0 0 0 1 0 0 0
POINTS 61
DATA ascii
14.9563303 31.1120491 -6.845983028
14.98995972 30.4895401 -6.953214169
14.59587002 30.13025093 -7.247831821
14.64752007 30.00190926 -7.227626801
14.56585026 30.08989906 -7.457289219
31.14327049 -30.00653076 -5.662984848
24.96227074 -33.23350906 -6.708074093
24.61025047 -33.40066147 -6.695735931
24.37348938 -33.50793076 -6.687084198
24.25959015 -33.56734848 -6.68404007
31.3338604 -29.63891029 -5.647694111
31.27437973 -29.76498032 -5.653443813
31.20224953 -29.87929916 -5.656972885
30.93782997 -27.87463951 -5.954985142
25.04186058 8.699552536 -6.884781837
25.0885601 8.629608154 -6.890343189
25.11949921 8.554156303 -6.891605854
25.14196014 8.475813866 -6.890594959
25.2238102 8.331399918 -6.898935795
25.25292969 8.255176544 -6.899947166
25.31139946 8.10272789 -6.902222157
25.18454933 9.192305565 -7.128188133
24.95397949 8.935015678 -7.046820164
24.95850945 8.850343704 -7.040361881
24.9773407 8.770850182 -7.038036823
24.98406029 8.687198639 -7.032353878
25.00237083 8.60767746 -7.03002882
25.01860046 8.52750206 -7.027187824
25.03824043 8.448545456 -7.025380135
25.05670929 8.369239807 -7.023313046
25.11346054 8.302638054 -7.032094955
25.21501923 8.250488281 -7.053534985
25.24296951 8.173983574 -7.054310799
25.27345085 8.098269463 -7.055860996
25.30554008 8.023029327 -7.057927132
24.96663094 8.937493324 -7.214046955
25.00301933 8.864079475 -7.216685772
25.02190971 8.784452438 -7.214311123
25.03416061 8.702576637 -7.210089207
25.0452404 8.620394707 -7.205603123
25.04874039 8.535737991 -7.199007034
15.46562004 34.33671951 -7.711397171
40.73649979 -8.764475822 -3.644604921
40.70024109 -8.875184059 -3.907373905
40.68050003 -8.888401031 -4.14784193
40.74079132 -8.617204666 -4.419744968
40.71998978 -8.743407249 -4.420382977
40.67237091 -8.750678062 -4.665332794
40.71442032 -8.754942894 -4.927811146
39.83044052 -9.332464218 -5.594600201
39.79872894 -9.453930855 -5.594191074
39.78205872 -9.57900238 -5.595963955
39.85055923 -9.339808464 -5.852416992
39.766819 -9.448981285 -5.844295979
40.89575958 -8.796595573 -6.243015766
40.02761078 -9.254480362 -6.130750179
39.98073959 -9.372952461 -6.127929211
39.97872925 -9.501969337 -6.132087231
40.06621933 -9.240772247 -6.400266171
40.03575897 -9.363200188 -6.39995718
39.9885788 -9.481653214 -6.397017002
