# .PCD v0.7 - Point Cloud Data file format
VERSION 0.7
FIELDS x y z
SIZE 4 4 4
TYPE F F F
COUNT 1 1 1
WIDTH 464
HEIGHT 1
VIEWPOINT 0 0 0 1 0 0 0
POINTS 464
DATA ascii
11.47045994 46.99084091 -8.116374016
14.96100044 30.43065071 -6.939706802
14.47881985 30.12380028 -7.235496998
14.57073975 30.0783596 -7.235283852
14.7423296 30.93714905 -7.645697117
14.72904015 30.66659927 -7.589677811
14.75977039 30.71879959 -7.815812111
14.71039009 30.37694931 -7.73989296
24.3934803 -36.51190186 -6.007914066
24.23987961 -36.76840973 -6.025647163
24.49473953 -38.16611862 -6.206112862
24.41959953 -38.30707932 -6.216888905
25.62004089 -35.45439911 -6.257133961
25.4828701 -35.49343109 -6.250154018
24.43664932 -36.09983063 -6.235622883
24.39205933 -36.27318954 -6.252717972
24.3642292 -36.47296143 -6.274372101
24.32336998 -36.65475082 -6.292891026
24.29904938 -36.86307907 -6.31596899
24.33169937 -37.16020966 -6.354290009
24.39027023 -37.50019836 -6.399876118
24.42914009 -38.06900024 -6.471673012
24.89463043 -35.36114883 -6.455370903
24.77923012 -35.42763901 -6.453588963
24.63316917 -35.44989014 -6.443788052
24.44371986 -35.64196014 -6.451361179
24.45063972 -35.8875885 -6.482398033
24.32822037 -35.94441986 -6.479131222
24.31053925 -36.15676117 -6.504078865
24.32220078 -37.15065002 -6.629413128
24.3073101 -37.37762833 -6.656735897
24.92971039 -35.14141083 -6.708448887
24.82463074 -35.2217598 -6.709222794
24.70681953 -35.2840004 -6.706593037
24.59506989 -35.35477066 -6.705665112
28.41181946 -30.96714973 -6.78305912
31.19198036 -29.50469971 -5.621945858
31.19681931 -29.6911602 -5.639328957
30.97732925 -28.07938957 -5.718594074
30.94445038 -27.88060951 -5.95626688
30.96096039 -26.3871994 -6.070161819
24.23201942 -29.16337013 -6.116038799
24.14431953 -29.23984909 -6.116519928
24.35479927 -28.95167923 -6.339799881
24.24879074 -29.0058403 -6.335310936
24.05584908 -27.03100014 -6.732714176
26.87949944 5.684957981 -4.087094784
26.90551949 5.604280949 -4.088431835
26.9061203 5.518332005 -4.085906982
26.9161396 5.434389114 -4.084867954
26.94238091 5.353713989 -4.086352825
26.91375923 5.090991974 -4.074621201
26.81887054 4.478794098 -4.044476032
26.82077026 4.394574165 -4.042694092
26.83218002 4.311954975 -4.042397022
26.84723091 4.229921818 -4.042694092
26.89526939 4.152970791 -4.048039913
26.88929939 4.067625999 -4.045217991
26.91633034 3.987286091 -4.047445774
26.97834969 3.911928892 -4.055018902
26.97846985 3.827475071 -4.053236961
26.99987984 3.74604702 -4.054721832
27.07004929 3.671171904 -4.063632011
27.08313942 3.588365078 -4.063930035
27.13324928 3.510334969 -4.069869995
27.14683914 3.427445889 -4.070314884
27.2131691 3.351036072 -4.078779221
27.19091988 3.263641119 -4.073878765
26.67634964 5.743309021 -4.234476089
26.59429932 5.640332222 -4.218540192
26.63661957 5.563967228 -4.22256279
26.65646935 5.482818127 -4.223027229
26.63540077 5.39336586 -4.216992855
26.68572998 5.318380833 -4.222407818
26.65538979 5.227362156 -4.214982033
26.67614937 5.146494865 -4.215754986
26.67337036 5.061131001 -4.212816238
26.57031059 4.45273304 -4.180171967
26.54874992 4.365426064 -4.174602985
26.55714035 4.283168793 -4.173829079
26.50477028 4.191336155 -4.163464069
26.50970078 4.108790874 -4.1622262
26.55147934 4.031888962 -4.166866779
26.55394936 3.948959112 -4.16531992
26.60798073 3.8735919 -4.171973228
26.56398964 3.784002066 -4.163154125
26.63516045 3.710800886 -4.172591209
26.69341087 3.635464907 -4.180016994
26.74752998 3.559286118 -4.186824799
27.09730911 3.521245003 -4.240355015
27.12170982 3.439835072 -4.242519855
27.14096069 3.357702017 -4.243913174
27.17074966 3.27678299 -4.247006893
26.57206917 5.709158897 -4.372942924
26.57110977 5.623727798 -4.369898796
26.58147049 5.540771961 -4.368776798
26.57803917 5.455028057 -4.365413189
26.58111 5.370726109 -4.363170147
26.33122063 5.236210823 -4.319108009
26.26288986 5.138914108 -4.305168152
26.2727108 5.057197094 -4.304205894
26.37636948 3.993932009 -4.291549206
26.39044952 3.913280964 -4.291869164
26.41893959 3.834707975 -4.294592857
26.46282959 3.75821805 -4.299880981
26.47521019 3.677149057 -4.300041199
26.51473045 3.599756956 -4.304687023
26.62252045 3.531241894 -4.320549011
26.85837936 3.478707075 -4.357400894
27.17543983 3.435029984 -4.407551765
27.18878937 3.352003098 -4.408032894
27.21071053 3.269985914 -4.409955978
26.57169914 5.62184906 -4.540284157
26.5637207 5.535070896 -4.535961151
26.57961082 5.453351021 -4.535795212
26.40966988 5.33409977 -4.503707886
26.15704918 5.19960022 -4.457489967
26.13997078 5.112889767 -4.451838017
26.08580971 5.019254208 -4.43986702
26.21450043 3.967470884 -4.431221962
26.22850037 3.887315989 -4.431553841
26.23933029 3.806689024 -4.431387901
26.3230896 3.57178998 -4.43986702
26.37888908 3.496977091 -4.447515011
27.02611923 3.498450041 -4.555745125
27.16781998 3.432080984 -4.578022957
27.19486046 3.35076499 -4.580849171
27.20108986 3.266845942 -4.580183983
26.57999992 5.631289959 -4.717640877
26.5904007 5.548307896 -4.716434002
26.61018944 5.467298985 -4.716951847
26.61622047 5.383485794 -4.715054989
26.08679008 5.193120956 -4.617622852
26.02429962 5.097723007 -4.603654861
25.96146965 5.002757072 -4.589686871
25.94669914 4.917397022 -4.584342003
25.93648911 4.833077908 -4.579857826
25.92794037 4.749223232 -4.57571888
25.93074989 4.667561054 -4.573649883
25.93330956 4.585925102 -4.571579933
25.93852043 4.504824162 -4.570028782
25.95804977 4.426218033 -4.571063042
25.97442055 4.347046852 -4.571579933
25.98472023 4.266860008 -4.571063042
26.05069923 3.950028896 -4.573822021
26.06756973 3.870810986 -4.574685097
26.08712006 3.791953087 -4.57606411
26.13722038 3.63561511 -4.58089304
26.1550808 3.556339979 -4.582099915
26.68630981 3.461958885 -4.672115803
27.19713974 3.443439007 -4.760407925
27.21051025 3.360346079 -4.760924816
27.22459984 3.277319908 -4.761614799
26.59299088 5.63036108 -4.881260872
26.61301994 5.549351215 -4.881795883
26.62895966 5.467479229 -4.881618023
26.60703087 5.377961159 -4.874493122
25.91814041 4.990911961 -4.738591194
25.86952019 4.899291039 -4.726836205
25.8341198 4.810535908 -4.71757412
25.84100914 4.729838848 -4.7161479
25.82634926 4.645312786 -4.710804939
25.82497978 4.563317776 -4.707954884
25.81752968 4.48036623 -4.704037189
25.83017921 4.400971889 -4.703858852
25.83773994 4.32073307 -4.702789783
25.85378075 4.241920948 -4.703323841
25.86668015 4.162581921 -4.703323841
25.89292908 4.08535099 -4.705818176
25.90632057 4.006043911 -4.705996037
25.92140007 3.926987886 -4.706531048
25.95960999 3.851341009 -4.711338997
25.96936035 3.771398067 -4.7109828
25.99736977 3.694060087 -4.714011192
26.01734924 3.615502119 -4.715613842
26.07805061 3.542418003 -4.724698067
26.22827911 3.480901003 -4.7501688
27.21953011 3.442589045 -4.927215099
27.21530914 3.357258081 -4.924542904
27.23329926 3.274686098 -4.925969124
26.59227943 5.63305378 -5.047903061
26.60366058 5.55024004 -5.046799183
26.61094093 5.466617107 -5.044960022
26.62084007 5.38358593 -5.043672085
25.81990051 4.974711895 -4.88179493
25.83600044 4.895658016 -4.881978989
25.7436409 4.796389103 -4.861559868
25.70311928 4.707293987 -4.851075172
25.69615936 4.624585152 -4.847027779
25.69957924 4.543847084 -4.845005035
25.69016075 4.460944176 -4.84059
25.70372009 4.382106781 -4.84059
25.71607971 4.303065777 -4.840405941
25.73303986 4.224787235 -4.841142178
25.75461006 4.147224903 -4.842796803
25.76623917 4.06803894 -4.84261322
25.78152084 3.989420891 -4.843164921
25.81113052 3.912956953 -4.846477032
25.83564949 3.835628033 -4.848867893
25.84341049 3.755780935 -4.848132133
25.98986053 3.533123016 -4.869470119
26.01129913 3.45479393 -4.871493816
26.0149498 3.374092102 -4.870205879
26.0027504 3.291424036 -4.865974903
27.24091911 3.363253117 -5.097569942
27.2354908 3.277784109 -5.094626904
27.26885033 3.196958065 -5.099040985
26.58090973 5.62379694 -5.207509995
26.59996033 5.542623043 -5.20788908
26.61875916 5.46138382 -5.208268166
26.63538933 5.379693031 -5.208268166
25.54627037 4.99675703 -4.98756218
25.49398994 4.905371189 -4.974289894
25.5050602 4.826403141 -4.973530769
25.51877975 4.747951984 -4.973340988
25.54096031 4.671051979 -4.974857807
25.57739067 4.596666813 -4.97921896
25.57010078 4.514419079 -4.975048065
25.54030037 4.428400993 -4.966516018
25.56925011 4.352660179 -4.969549179
25.57279968 4.272575855 -4.967652798
25.62939072 4.201248169 -4.976185799
25.66251945 4.125871181 -4.980166912
25.68572044 4.048801899 -4.982253075
25.70772934 3.971479893 -4.984148979
25.72270012 3.893032074 -4.984717846
25.78717995 3.499063969 -4.986235142
25.86397934 3.42870903 -4.999127865
25.8178997 3.342031002 -4.988131046
25.85919952 3.266746044 -4.994198799
25.89735985 3.190877914 -4.999697208
25.92263031 3.113285065 -5.002730846
26.62524033 5.631173134 -5.388734818
26.60783005 5.54226017 -5.381692886
26.63941002 5.37850523 -5.38130188
25.39541054 4.884462833 -5.118802071
25.40546036 4.805615902 -5.117823124
25.41719055 4.72711277 -5.117237091
25.45085907 4.652639866 -5.121149063
25.44570923 4.571066856 -5.117237091
25.45575905 4.492297173 -5.116454124
25.47714996 4.415519238 -5.118019104
25.84804916 3.182877064 -5.155183792
25.8781395 3.106015921 -5.159290791
27.26777077 3.188036919 -5.436461926
26.61495972 5.554597855 -5.556390762
26.64818001 5.476268768 -5.559817791
26.66485977 5.394487858 -5.559817791
26.64862061 5.306153774 -5.552964211
25.32582092 4.962092876 -5.272148132
25.35500908 4.72591877 -5.268921852
25.35878944 4.646168232 -5.266705036
26.63322067 5.556405067 -5.723577023
26.66739082 5.478212833 -5.727305889
26.68119049 5.395791054 -5.726685047
26.61414909 5.297295094 -5.708655834
25.56833076 4.926246166 -5.476144791
26.42977905 3.923825026 -5.620377064
26.47205925 3.598668098 -5.619547844
26.47425079 3.516277075 -5.61768198
26.62755013 5.548371792 -5.880877972
26.65402031 5.468617916 -5.883005142
26.66971016 5.386624813 -5.882791996
25.47156906 4.658360004 -5.596724987
26.37247086 3.99138093 -5.766239166
26.40778923 3.913891077 -5.771343231
26.01991081 3.36818409 -5.671379089
26.64541054 5.559790134 -6.064470768
26.62410927 5.470160007 -6.055717945
26.64842033 5.39000082 -6.057467937
25.32743073 4.639201164 -5.73470211
25.37035942 4.566662788 -5.741267204
25.38629913 4.328701019 -5.73557806
25.40139008 4.251119137 -5.736014843
25.67556953 3.250726938 -5.76424408
25.69413948 3.173017025 -5.76621294
25.73056984 3.017347097 -5.770152092
26.70182037 5.567862988 -6.247354031
26.73213959 5.488659859 -6.250498772
25.20362091 4.933590889 -5.879889965
25.27856064 4.626914978 -5.883708954
25.29550934 4.549856186 -5.884383202
25.33535004 4.316686153 -5.884158134
25.49345016 3.702306032 -5.898084164
25.52148056 3.546616077 -5.899432182
25.55241966 3.391233921 -5.901678085
25.61045074 3.239150047 -5.910438061
25.61930084 3.160444021 -5.910212994
25.6240406 3.081248999 -5.909090042
25.6614399 3.005907059 -5.915604115
26.7065506 5.566842079 -6.408937931
25.19985008 4.930922985 -6.030045986
25.17185974 4.845311165 -6.019693851
25.17609024 4.766070843 -6.0171628
25.18007088 4.686851025 -6.014633179
25.19433022 4.609578133 -6.014633179
25.2208004 4.534499168 -6.017622948
25.38935089 4.083869934 -6.039018154
25.40752983 4.006866932 -6.040399075
25.44029045 3.852205038 -6.042469025
25.45392036 3.774422884 -6.042929173
25.42552948 3.610918045 -6.03073597
25.45095062 3.534904003 -6.03418684
25.46939087 3.457853079 -6.036026955
25.48373985 3.380208969 -6.036948204
25.50171089 3.303009987 -6.038787842
25.53586006 3.227807045 -6.044538975
25.56012917 3.151235104 -6.047989845
25.5890007 3.075124979 -6.052590847
25.61377907 2.998414993 -6.05627203
26.69376945 5.562171936 -6.576746941
25.16729927 4.922626019 -6.182927132
25.13266945 4.835842133 -6.170663834
25.1531105 4.759797096 -6.172079086
25.15135956 4.679584026 -6.168069839
25.1713295 4.60344696 -6.169485092
25.1767292 4.524653912 -6.167363167
25.17804909 4.445195198 -6.164297104
25.19635963 4.368759155 -6.165475845
25.21347046 4.292089939 -6.166419983
25.22940063 4.215196133 -6.167127132
25.26139069 4.140917778 -6.171844006
25.27972984 4.064322948 -6.173257828
25.30264091 3.988411903 -6.175851822
25.32628059 3.912545919 -6.17868185
25.35161972 3.836863995 -6.181982994
25.40509987 3.606102943 -6.186699867
25.42086029 3.528811932 -6.187879086
25.43541908 3.451328039 -6.188821793
25.45166969 3.374043941 -6.190237999
25.46767998 3.296691895 -6.191651821
25.52298927 3.22426796 -6.202735901
25.60950089 2.996000051 -6.21688509
25.18106079 4.603304863 -6.323310852
25.15494919 4.518819809 -6.313179016
25.15913963 4.439938068 -6.310767174
25.17263985 4.362730026 -6.310767174
25.18782043 4.285806179 -6.311248779
25.19798088 4.208031178 -6.31052494
25.35251045 4.153934956 -6.34623003
25.47886086 3.934197903 -6.368666172
25.33823967 3.832925081 -6.330307007
25.40843964 3.763848066 -6.345024109
25.37569046 3.679470062 -6.333926201
25.40835953 3.525166035 -6.3365798
25.41521072 3.446676016 -6.335615158
25.65780067 3.079560041 -6.383863926
25.59193993 2.992034912 -6.365046978
25.67139053 2.921519041 -6.382658005
25.14965057 4.927584171 -6.497015953
25.15323067 4.848203182 -6.494050026
25.16036987 4.769567013 -6.492073059
25.42308998 4.095767021 -6.528407097
25.50156975 4.028180122 -6.545461178
25.48891068 3.946069956 -6.539034843
25.51431084 3.869885921 -6.542494774
25.60561943 3.803404093 -6.563010216
25.66510963 3.731797934 -6.575367928
25.65341949 3.649766922 -6.569437027
25.58095932 3.31972599 -6.539775848
25.57852936 3.239646912 -6.53656292
25.5729599 3.159257889 -6.532608986
25.57291031 3.079627991 -6.530137062
25.60533905 3.003865957 -6.536067963
25.58737946 5.006745815 -6.770542145
25.15892029 4.842822075 -6.652510166
25.17461014 4.765792847 -6.652761936
25.1739006 4.685702801 -6.64871788
25.18815994 4.608448982 -6.64871788
25.20313072 4.531322002 -6.648971081
25.21500969 4.453641891 -6.64846611
25.22473907 4.375600815 -6.647455215
25.2924099 4.307449818 -6.661860943
25.32267952 4.232705116 -6.666409969
25.36227989 4.159379959 -6.67348814
25.59646034 3.956217051 -6.725553036
25.62282944 3.879842043 -6.729343891
25.63365936 3.801071882 -6.729091167
25.66338921 3.725052118 -6.733892918
25.58510017 3.313808918 -6.699015141
25.15254974 4.848766804 -6.808913231
25.16824913 4.77175808 -6.8091712
25.17518044 4.69310379 -6.807105064
25.20085907 4.617935181 -6.810204983
25.20350075 4.538543224 -6.807105064
25.2049408 4.459011078 -6.803747177
25.22230911 4.382324219 -6.804780006
25.27132988 4.072015762 -6.804005146
25.29991913 3.997029066 -6.808395863
25.30728912 3.918651104 -6.807105064
25.33543015 3.843455076 -6.811495781
25.36622047 3.768548012 -6.816661835
25.41111946 3.695574999 -6.825703144
25.42234039 3.617597103 -6.825703144
25.56158066 3.317914963 -6.851792812
25.56971931 3.239233971 -6.851275921
25.59967041 3.163259983 -6.856700897
25.59198952 3.082627058 -6.852050781
25.6042099 3.004435062 -6.852826118
25.1379509 4.76408577 -6.958881855
25.21596909 4.698782921 -6.976562023
25.18473053 4.613056183 -6.963894844
25.16839027 4.530299187 -6.955451012
25.16601944 4.450205803 -6.950965881
25.20446014 4.138700008 -6.947008133
25.26370049 4.068871975 -6.959938049
25.28178024 3.992248058 -6.961521149
25.29962921 3.915550947 -6.963103771
25.30866051 3.837481022 -6.962312222
25.31172943 3.758541107 -6.959938049
25.34509087 3.684060097 -6.966005802
25.31426048 3.600306988 -6.954395771
25.44482994 3.459733963 -6.984477997
25.49548912 3.386991024 -6.995560169
25.49427986 3.307265997 -6.99239397
25.50429916 3.229036093 -6.99239397
25.58013916 3.158934116 -7.010601044
19.76897049 8.991037369 -6.843843937
19.78951073 8.927207947 -6.841425896
19.81594086 8.866064072 -6.841124058
19.84391022 8.805614471 -6.841425896
19.86473083 8.742004395 -6.839311123
20.19409943 8.519640923 -6.907307148
20.26235008 8.47530365 -6.921813011
20.28825951 8.413099289 -6.921813011
20.3651104 8.37183857 -6.939340115
20.46661949 8.340257645 -6.965330124
20.45763969 8.263504028 -6.95354414
19.71797943 8.961807251 -6.954399109
19.75231934 8.904399872 -6.956857204
19.7786808 8.843370438 -6.956550121
20.02482033 8.587327957 -6.996199131
20.13513947 8.561602592 -7.025704861
20.15078926 8.495351791 -7.022017002
20.21890068 8.451107979 -7.036769867
20.28340912 8.405068398 -7.050293922
20.31262016 8.344245911 -7.051523209
20.37866974 8.298399925 -7.065660954
20.37402916 8.22372818 -7.055212021
19.3054409 -1.898905993 -6.471794128
19.87791061 8.739532471 -7.371728897
19.28458023 -1.838762045 -6.572076797
19.31558037 -1.901533008 -6.584677219
19.25316048 -1.955047965 -6.565291882
19.20189095 -2.009380102 -6.549784184
19.1975193 -2.068484068 -6.550429821
19.19276047 -2.183793068 -7.034549236
18.81245041 -2.490360022 -7.022816181
18.80146027 -2.6063869 -7.024560928
15.36106968 28.94338989 -7.092782021
40.63035965 -8.74163723 -3.635010004
40.61270142 -8.856095314 -3.898889065
39.76966858 -9.318225861 -5.586006165
39.74378967 -9.440880775 -5.586414814
39.7262001 -9.565550804 -5.588051796
39.79561996 -9.326933861 -5.844295979
39.77067184 -9.449896812 -5.844865799
39.70299911 -9.562596321 -5.839168072
39.96401978 -9.239780426 -6.120948792
39.93162918 -9.361441612 -6.120355129
39.9152298 -9.486878395 -6.122285843
40.04216003 -9.235220909 -6.396399021
40.03961182 -9.364100456 -6.400576115
39.98569107 -9.480969429 -6.39655304
