# .PCD v0.7 - Point Cloud Data file format
VERSION 0.7
FIELDS x y z
SIZE 4 4 4
TYPE F F F
COUNT 1 1 1
WIDTH 55
HEIGHT 1
VIEWPOINT 0 0 0 1 0 0 0
POINTS 55
DATA ascii
10.67883015 27.93440056 -7.771916866
11.13967991 26.88961029 -8.283250809
14.96100044 30.43065071 -6.939706802
14.58479977 30.10737991 -7.242301941
14.65480995 30.01683044 -7.231243134
14.74312973 30.45615005 -7.548539162
14.63714027 30.00209999 -7.446567059
24.81088066 -40.83506012 -5.659546852
24.72154045 -40.12078094 -5.881779194
24.65028 -38.91173172 -6.034171104
24.55658913 -39.29513931 -6.070374966
24.59453011 -40.1739502 -6.171535969
24.56798935 -40.40848923 -6.196106911
24.99832916 -37.91889954 -6.215388775
24.58201981 -38.56187057 -6.258492947
24.45487022 -39.15282059 -6.317966938
24.42079926 -39.36656952 -6.340475082
24.53089905 -40.0911293 -6.433368206
24.51581955 -40.34399033 -6.462012768
24.55163002 -40.68363953 -6.504571915
24.97463989 -37.63618088 -6.462413788
24.85850906 -37.71179962 -6.462271214
24.7361908 -37.77795029 -6.460562229
24.61424065 -37.84453964 -6.458994865
24.44301987 -39.13911819 -6.602876186
24.40109062 -39.34009171 -6.624244213
25.01024055 -37.44493103 -6.723264217
23.9416008 -30.6678009 -6.772322178
31.26884079 -29.9430809 -5.669127941
30.99077988 -27.92234993 -5.965241909
24.26041031 -29.19753075 -6.123250008
24.1964798 -29.30303001 -6.129818916
24.39732933 -29.00223923 -6.350938797
27.43935966 -27.93984985 -6.816812992
24.12161064 -26.93803024 -6.727931023
24.03754997 -27.01044083 -6.727562904
24.20992088 -27.04968071 -6.971067905
24.09614944 -27.08934975 -6.962155819
40.73553085 -8.764266968 -3.644516945
40.59032822 -8.85121727 -3.896720886
40.58523178 -8.867588997 -4.138041019
40.73786926 -8.616587639 -4.419425011
40.70637894 -8.740485191 -4.41889286
40.75944901 -9.408166885 -5.47634697
39.87480927 -9.342860222 -5.600873947
39.80162048 -9.454618454 -5.594600201
39.82646179 -9.334160805 -5.848855019
39.75815964 -9.446922302 -5.843013763
39.96979904 -9.241116524 -6.12184
39.91236877 -9.356927872 -6.117384911
39.88925171 -9.480705261 -6.118276119
41.50360107 6.693091869 -6.544610977
40.03733826 -9.234110832 -6.395625114
40.00785828 -9.356675148 -6.395470142
39.98281097 -9.480284691 -6.396089077
