# .PCD v0.7 - Point Cloud Data file format
VERSION 0.7
FIELDS x y z
SIZE 4 4 4
TYPE F F F
COUNT 1 1 1
WIDTH 92
HEIGHT 1
VIEWPOINT 0 0 0 1 0 0 0
POINTS 92
DATA ascii
-19.35757065 -6.075562954 -6.390841007
-17.4391098 -5.882613182 -5.903238773
-17.70078087 -5.91047287 -5.986225128
-17.95463943 -5.934093952 -6.066444874
-18.12018013 -5.927215099 -6.11654377
-19.35139084 -6.133450031 -6.515492916
-17.11068916 -5.893951893 -5.922738075
-17.16284943 -5.853075981 -5.934630871
-17.28331947 -5.835021019 -5.970313072
-19.5085392 -6.320522785 -6.716814041
-18.94087029 -6.072494984 -6.513678074
-17.04104996 -5.806581974 -6.003260136
-19.62759018 -6.486861229 -6.899267197
-19.68164062 -6.437811852 -6.911363125
-19.67694092 -6.36951685 -6.902769089
-19.68556023 -6.305648804 -6.898949146
-17.06347084 -5.812569141 -6.112639904
-19.65473938 -6.494064808 -7.025373936
-19.70195961 -6.309141159 -7.021173954
-19.7293396 -6.251238823 -7.024082184
-19.73848915 -6.187567234 -7.02052784
-19.74473 -6.123055935 -7.016005039
-19.75617981 -6.060231209 -7.013420105
-21.65815926 -6.138062 -7.643772125
-19.07390022 -5.980943203 -7.158778191
-19.15685081 -5.942464828 -7.183178902
10.60937977 27.75274086 -7.721115112
14.99269962 30.94421959 -6.818990231
14.99038982 30.49041939 -6.953414917
12.3955698 34.3239212 -7.690799236
12.49678993 34.27470016 -7.688313007
14.57798004 30.0933094 -7.238899231
14.65437984 30.01596069 -7.231029987
14.62069035 30.20319939 -7.485517025
30.4617691 -44.6932106 -6.756257057
23.97373009 -30.70895004 -6.781462193
31.27006912 -29.76087952 -5.652659893
31.17361069 -29.85187912 -5.651744843
30.9120903 -27.85144997 -5.949998856
24.36812973 -28.9675293 -6.343292236
27.32064056 -27.81897926 -6.787151814
24.77872086 -26.83205032 -6.795992851
24.62317085 -26.8282795 -6.77575779
24.13406944 -26.95195007 -6.731425762
24.02840042 -27.00016022 -6.724987984
32.81779099 -0.1046501026 -6.298333168
32.59757996 -0.3039751947 -6.25605011
32.58766174 -0.4038724005 -6.254343987
32.57056046 -0.5036053061 -6.251309872
32.55609894 -0.6032916903 -6.2488451
32.54330063 -0.7029364705 -6.246758938
32.54687881 -0.802919805 -6.247897148
32.55112839 -0.9029589295 -6.249224186
32.55802917 -1.003121972 -6.251121044
32.5714798 -1.103569031 -6.254343987
32.58560181 -1.204144001 -6.257757187
32.61510086 -1.305444956 -6.264204025
32.63645172 -1.406599045 -6.269134045
32.76037979 -1.714149952 -6.29586792
32.73332977 -0.1065841988 -6.489593029
32.58966827 -0.2061077952 -6.461034775
32.56142044 -0.3058334887 -6.455557823
32.54660034 -0.4055585861 -6.452818871
32.53932953 -0.5053170919 -6.451645851
32.52291107 -0.6048709154 -6.448711872
32.51012039 -0.704413712 -6.446559906
32.51369095 -0.8042953014 -6.447733879
32.51596832 -0.9041783214 -6.448711872
32.65153885 -1.509824991 -6.480204105
32.66732025 -1.611004949 -6.484312057
32.71020889 -1.713732004 -6.493896008
32.45647049 -0.6910141706 -6.642158985
32.48651886 -0.7913743258 -6.648810863
40.67321014 -8.7508564 -3.638883114
40.59325027 -8.851853371 -3.897002935
40.64550018 -8.880755424 -4.144240856
40.74079132 -8.617204666 -4.419744968
40.72291183 -8.744033813 -4.420702934
39.81126022 -9.456907272 -5.595963955
39.79323959 -9.069161415 -5.835607052
39.83031082 -9.335064888 -5.849424839
39.78223038 -9.452642441 -5.846576214
40.44947052 -9.873770714 -5.954130173
39.99581146 -9.247130394 -6.125850201
39.94607162 -9.364827156 -6.122581959
39.91812134 -9.487565041 -6.122731209
40.43875122 -9.742458344 -6.207673073
40.40386963 -9.865304947 -6.206931114
40.09125137 -9.246545792 -6.404288769
40.10791016 -9.380076408 -6.411560059
40.04721832 -9.495558739 -6.40645504
40.43384171 -9.718360901 -6.473443985
