# .PCD v0.7 - Point Cloud Data file format
VERSION 0.7
FIELDS x y z
SIZE 4 4 4
TYPE F F F
COUNT 1 1 1
WIDTH 63
HEIGHT 1
VIEWPOINT 0 0 0 1 0 0 0
POINTS 63
DATA ascii
13.86800957 3.073703051 -5.246222019
13.89019012 3.033941984 -5.251105785
13.85280037 41.9336586 -7.954819202
13.97764969 41.87976074 -7.952682018
12.37829018 34.27606964 -7.680023193
12.48036957 34.22966003 -7.678157806
24.81106949 -38.65446091 -5.731835842
24.73077011 -38.79064178 -5.740809917
24.55797005 -38.76599884 -6.011428833
24.3832798 -36.98593903 -6.061522007
24.48617935 -38.15277863 -6.203930855
24.4728508 -38.39062119 -6.230529785
24.98468018 -35.71669006 -6.234910965
24.84674072 -35.75252914 -6.227787971
24.77179909 -35.87908936 -6.236620903
24.66777039 -35.96390152 -6.23818779
24.48381042 -36.16949844 -6.247732162
24.41526031 -36.30768967 -6.258700848
24.37358093 -36.48694992 -6.276793003
24.3436203 -36.6852684 -6.298161983
24.31594086 -36.88869858 -6.320384979
24.36964989 -37.21817017 -6.364262104
24.38865089 -37.49771118 -6.399447918
24.98628998 -35.49132919 -6.479279041
24.82683945 -35.49570084 -6.466063023
24.45342064 -35.89168167 -6.483139992
24.36370087 -35.99682999 -6.488635063
24.31027985 -37.1324501 -6.626144886
24.32563972 -37.40581894 -6.661786079
24.99658966 -35.23569107 -6.726551056
24.89406013 -35.32028961 -6.728096962
24.75612068 -35.35440826 -6.720053196
24.64922905 -35.432621 -6.720517159
24.43470955 -35.58808899 -6.721445084
24.34267044 -35.68819046 -6.726241112
24.32505989 -35.89847946 -6.751923084
30.96871948 -27.90246964 -5.960968018
27.2383194 -26.09905052 -6.321345806
27.38483047 -27.88433075 -6.803190231
24.04995918 -27.02438927 -6.731058121
15.45635033 30.4592495 -6.773414135
15.43826008 34.27598953 -7.697689056
40.65177917 -8.746247292 -3.636945963
40.63702011 -8.861397743 -3.901246071
40.64550018 -8.880755424 -4.144240856
40.66944122 -8.732551575 -4.414848804
40.76100922 -8.764962196 -4.933494091
39.83343124 -9.462173462 -5.599101067
39.86307907 -9.342743874 -5.854269028
39.8400116 -9.466370583 -5.855123043
39.83290863 -9.593884468 -5.858398914
39.97943115 -9.243344307 -6.123324871
39.95280838 -9.366407394 -6.123621941
39.93735886 -9.492137909 -6.125700951
39.98957825 -9.352399826 -6.392530918
39.97703934 -9.478917122 -6.395161152
38.0601387 6.599392891 -6.473800182
38.0666008 6.480278015 -6.471471786
38.0979805 6.365410805 -6.473466873
38.00035095 6.48015213 -6.709724903
38.01810837 6.363213062 -6.70938015
38.03551102 6.24622488 -6.70903492
38.07978058 6.133577824 -6.713519096
