# .PCD v0.7 - Point Cloud Data file format
VERSION 0.7
FIELDS x y z
SIZE 4 4 4
TYPE F F F
COUNT 1 1 1
WIDTH 127
HEIGHT 1
VIEWPOINT 0 0 0 1 0 0 0
POINTS 127
DATA ascii
14.9396801 30.83478928 -6.794734955
14.97525978 30.45965958 -6.946360111
12.48338985 34.23794174 -7.680023193
14.59714985 30.13287926 -7.24846983
14.6573801 30.02210045 -7.23251915
14.62934017 30.45902061 -7.538034916
14.66660976 30.29805946 -7.509150028
14.64013004 30.00823975 -7.448098183
24.49749947 -36.66759109 -6.033695221
24.40957069 -37.77793121 -6.15482378
24.39307976 -38.0077095 -6.180195808
25.6078701 -35.43754959 -6.254143238
25.31004906 -35.48199844 -6.234342098
24.4943409 -35.94697952 -6.222089767
24.41945076 -36.07442093 -6.231206894
24.33904076 -36.19433975 -6.239041805
24.36643028 -36.47624969 -6.274940968
24.3178997 -36.64651108 -6.291466236
24.31104088 -36.88125992 -6.319102764
24.43471909 -37.31753922 -6.381355762
24.42588997 -37.55495834 -6.409276962
25.46974945 -35.25098038 -6.492050171
25.34417915 -35.30485153 -6.487595081
25.15306091 -35.26651001 -6.466210842
25.02930069 -35.32172012 -6.462202072
24.91399002 -35.38864136 -6.460420132
24.78263092 -35.43249893 -6.454480171
24.63092041 -35.44664001 -6.443193913
24.4258194 -35.61585999 -6.44660902
24.35931969 -35.75355911 -6.458044052
24.30162048 -35.90510941 -6.472002983
24.30335999 -36.14609146 -6.502148151
24.2697506 -36.57881927 -6.553380013
24.29999924 -36.86943054 -6.592288017
24.34115982 -37.17961121 -6.634610176
25.3678894 -35.07057953 -6.73939085
25.21924019 -35.09127045 -6.728406906
25.08506012 -35.13150024 -6.721290112
24.92114067 -35.12931824 -6.706129074
24.82007027 -35.21530151 -6.707984924
24.69152069 -35.26214981 -6.702414989
24.57983971 -35.33287048 -6.701488018
24.47076035 -35.40729904 -6.701333046
31.36108017 -29.48287964 -5.636191845
31.26111984 -29.57010078 -5.634492874
30.96412086 -28.06740952 -5.716137886
30.9532795 -27.88855934 -5.957975864
30.85289955 -27.97009087 -5.955126762
27.38213921 -26.23685074 -6.35492897
24.31735039 -28.90716934 -6.329990864
27.40209007 -27.90189934 -6.807500839
29.97691917 6.054646969 -6.617208004
29.81921959 5.178974152 -6.747641087
29.82053947 5.085003853 -6.744359016
29.48076057 5.395876884 -6.868402958
29.58637047 5.321444988 -6.889291763
29.60927963 5.231836796 -6.890863895
29.61079025 5.138473988 -6.887495041
29.62640953 5.047605038 -6.887495041
29.75773048 5.444430828 -7.111279964
29.68617058 5.337267876 -7.090116024
29.72123909 5.155516148 -7.090806007
29.6841507 5.05532217 -7.078153133
18.94485092 6.581550121 -5.198720932
22.48340034 11.84440994 -5.343519211
26.22129059 13.70271969 -7.139414787
26.2490406 13.51049995 -7.298663139
40.72578812 -8.762171745 -3.643635988
40.95436096 8.410282135 -3.921799898
40.91458893 8.271379471 -3.915482998
40.91242981 8.140376091 -3.912842989
40.93135071 8.013671875 -3.912276983
40.94107819 7.885233879 -3.910862923
40.90541077 7.748289108 -3.905112028
40.94953918 7.626585007 -3.907092094
40.67689896 -8.870093346 -3.905112028
40.8666687 8.244205475 -4.152842999
40.91714859 8.123827934 -4.155443192
40.51089096 7.785097122 -4.108837128
40.48276901 7.650979996 -4.103536129
40.47084045 7.520198822 -4.099935055
40.38557053 6.992772102 -4.082131863
40.62995148 -8.877356529 -4.142641068
40.86217117 8.266075134 -4.424853802
40.91952133 8.147079468 -4.428366184
40.63346863 -8.724826813 -4.410911083
39.96026993 6.924283981 -4.54693079
39.98329163 6.801989079 -4.547154903
41.01725006 8.153793335 -4.948649883
41.07228088 8.033824921 -4.952321053
39.79695892 7.657666206 -4.794487953
39.80562973 7.532763958 -4.792712212
39.89352036 6.414066792 -4.780043125
39.93899918 6.170225143 -4.780870914
39.98522949 6.051826 -4.78418684
40.78430939 -8.769972801 -4.93633604
41.04705048 8.164510727 -5.219190121
40.22454071 -9.154790878 -5.400148869
39.72101974 6.388893127 -5.501296997
39.73303986 6.140964031 -5.497613907
39.86130905 -9.33969593 -5.598965168
39.83921051 -9.463547707 -5.599919796
39.40858841 7.708386898 -5.74087286
39.42039108 7.585202217 -5.739163876
39.46097946 7.467539787 -5.741727829
39.45743179 7.341550827 -5.737882137
39.60731888 5.994625092 -5.726912022
39.60691833 5.870326042 -5.724205971
39.79705048 -9.198557854 -5.840308189
39.7898407 -9.32557869 -5.84344101
39.7466011 -9.444176674 -5.841304779
39.41814041 6.956952095 -5.972152233
39.44514084 6.83699894 -5.973042965
39.49092102 6.346782207 -5.967697144
39.52779007 6.228365898 -5.970369816
39.54085159 6.106162071 -5.969479084
39.60340118 5.991480827 -5.976161957
39.58834076 5.865023136 -5.971113205
39.91294861 -9.227974892 -6.113079071
39.84016037 -9.340001106 -6.106246948
39.84307098 -9.469730377 -6.111147881
39.67478943 6.398221016 -6.254528999
39.54608154 5.880505085 -6.222195148
39.58544922 5.762280941 -6.225597858
39.9969101 -9.224783897 -6.389126778
39.97034073 -9.347899437 -6.389437199
39.93954849 -9.47002697 -6.389126778
