# .PCD v0.7 - Point Cloud Data file format
VERSION 0.7
FIELDS x y z
SIZE 4 4 4
TYPE F F F
COUNT 1 1 1
WIDTH 142
HEIGHT 1
VIEWPOINT 0 0 0 1 0 0 0
POINTS 142
DATA ascii
12.87602997 36.67293167 -7.713095188
12.98060989 36.61106873 -7.708401203
13.09552002 36.57846069 -7.709965229
13.21000957 36.54457092 -7.711335182
12.93257046 36.51791 -7.933952808
13.06927967 36.54722977 -7.949071884
13.1793499 36.50143051 -7.947863102
14.85095024 31.40946007 -7.320066929
14.60525036 30.14958954 -7.252511978
14.65651989 30.0203495 -7.232092857
31.30145073 -29.6082592 -5.641811848
31.33111 -29.81897926 -5.663768768
31.32040024 -29.99245071 -5.678537846
27.16356087 -26.02742004 -6.303890228
28.76122093 -16.17057991 -5.737481117
28.70461082 -16.25485992 -5.736101151
28.67770958 -16.35601997 -5.740756989
28.74138069 -16.16501045 -5.929825783
28.65740013 -16.23370934 -5.922700882
28.60660934 -16.32106018 -5.922523022
28.50605965 -16.37981987 -5.912014008
28.98653984 -16.0655098 -6.163015842
28.88734055 -16.12656975 -6.152347088
29.02449989 -16.32015038 -6.192449093
28.77928925 -16.29867935 -6.150506973
28.57546997 -16.29923058 -6.117395878
28.49548912 -16.3696804 -6.110958099
28.4510994 -16.46047974 -6.112246037
28.43697929 -16.56896019 -6.120154858
28.98557091 -16.1905899 -6.372281075
28.92462921 -16.27318954 -6.369815826
28.73703957 -16.28392029 -6.339289188
28.67244911 -16.36372948 -6.336065769
28.5037899 -16.38360977 -6.309710026
28.48822975 -16.4911499 -6.317483902
28.51129913 -16.62149048 -6.333980083
28.78767014 -16.31516075 -6.560596943
28.6940403 -16.37859917 -6.550621986
28.63175964 -16.45972061 -6.547883034
28.59810066 -16.5573101 -6.551795006
28.82040977 -16.31941032 -6.777225018
28.69170952 -16.47985077 -6.770572186
28.61726952 -16.55405998 -6.764927864
28.42898941 -16.6787796 -6.744366169
28.86304092 -16.34610939 -6.986843109
28.93427086 -16.50390053 -7.016477108
28.81055069 -16.55068016 -6.998654842
28.77996063 -16.65074921 -7.003629208
28.61717033 -16.6739502 -6.976274014
22.30393982 8.450489044 -6.484437943
23.17481995 7.738694191 -6.643554211
22.24851036 8.435301781 -6.616221905
22.27699089 8.368020058 -6.617031097
22.27998924 8.291239738 -6.610294819
22.30442047 8.222514153 -6.610025883
22.33497047 8.156027794 -6.611641884
22.37891006 8.094345093 -6.617300987
22.43083 8.035390854 -6.6253829
22.47262001 7.972652912 -6.630502224
22.11289978 8.295663834 -6.713744164
22.15176964 8.232807159 -6.717867851
22.1715107 8.162815094 -6.716217995
22.18560982 8.090803146 -6.712919235
22.22751045 8.028905869 -6.718142986
22.25655937 7.962295055 -6.719518185
22.33888054 7.914523125 -6.73711586
22.38936996 7.855181217 -6.745090008
22.38792992 7.777620792 -6.737390995
22.47805977 7.731727123 -6.757462978
21.89797974 8.923578262 -6.873888969
21.91489983 8.774062157 -6.862101078
21.92565918 8.700414658 -6.857048988
21.9281292 8.623621941 -6.849471092
21.93033981 8.546895981 -6.841893196
21.94124031 8.473695755 -6.83712101
21.96623039 8.40599823 -6.836841106
21.97934914 8.333803177 -6.832911015
21.9877491 8.259919167 -6.827579021
22.00758934 8.190413475 -6.825894833
22.03351021 8.123188972 -6.826176167
22.06915092 8.059505463 -6.829544067
22.10640907 7.996329784 -6.833473206
22.14620018 7.933973789 -6.838243961
22.23883057 7.813529015 -6.851996899
22.27539062 7.749680042 -6.855926037
22.33626938 7.69411993 -6.867434025
22.41972923 7.646006107 -6.885958195
22.39977074 7.486086845 -6.865468979
21.89011955 8.443252563 -6.957904816
21.89175034 8.366817474 -6.950187206
21.90745926 8.295880318 -6.947041988
21.91934967 8.22358036 -6.942755222
21.93819046 8.153957367 -6.940752983
21.95681 8.084295273 -6.938753128
21.96349907 8.010327339 -6.933034897
22.02042007 7.954627991 -6.943325996
22.07088089 7.89639616 -6.95161581
22.12842941 7.840488911 -6.962193012
22.17769051 7.781447887 -6.970197201
22.20689011 7.715259075 -6.971911907
22.24585915 7.652391911 -6.976770878
21.83621979 8.4282341 -7.083793163
21.83605957 8.351293564 -7.0753479
21.85263062 8.280872345 -7.072435856
21.88241005 8.138961792 -7.065739155
21.9081707 8.072119713 -7.066030025
21.95170975 8.01175499 -7.072144985
21.98158073 7.946321964 -7.07389307
22.02026939 7.88400507 -7.078551769
22.05968094 7.821845055 -7.083501816
22.11245918 7.764269829 -7.092821121
22.14792061 7.700477123 -7.096605778
21.80767059 8.492254257 -7.234641075
21.83184052 8.424621582 -7.234046936
21.84598923 8.353169441 -7.230187893
21.85009003 8.277988434 -7.223062992
21.8217392 8.190781593 -7.205251217
21.86173058 8.053100586 -7.201984882
21.96009064 7.86055994 -7.210298061
22.10095978 7.68225193 -7.233157158
21.92834091 8.391494751 -7.402316093
40.72969055 -8.763009071 -3.643989086
40.63117981 -8.860124588 -3.900680065
40.4715004 -8.84274292 -4.126338959
40.72386169 -8.761755943 -4.67128706
40.82666016 -8.774282455 -5.207598209
39.7890892 -9.451641083 -5.59282589
40.09506989 -9.654375076 -5.640295982
39.84091949 -9.33754921 -5.850992203
39.81016159 -9.459277153 -5.850707054
39.96691132 -9.240448952 -6.121395111
39.90467072 -9.355122566 -6.116197109
39.89886856 -9.482992172 -6.11976099
40.02674866 -9.231668472 -6.393922806
40.01940918 -9.359375 -6.397326946
39.96934891 -9.477093697 -6.393922806
38.94733047 14.06803989 -6.683077812
38.77967834 14.54514027 -6.944128036
38.99636841 13.94791985 -6.943795204
39.0324707 13.82590961 -6.942632198
39.02352905 13.68813992 -6.933487892
39.07371902 13.57126045 -6.934984207
